# .PCD v0.7 - Point Cloud Data file format
VERSION 0.7
FIELDS x y z
SIZE 4 4 4
TYPE F F F
COUNT 1 1 1
WIDTH 1640
HEIGHT 1
VIEWPOINT 0 0 0 1 0 0 0
POINTS 1640
DATA ascii
-9.4982996 -26.6684 -54.1259
-12.1657 -27.621 -54.1259
-12.2789 -27.2479 -55.875099
-9.3428001 -27.0441 -51.8895
-12.0477 -28.010099 -51.8895
-9.1058998 -27.615999 -46.409801
-11.868 -28.6024 -46.409801
-11.9426 -28.356701 -49.279499
-9.2040997 -27.3787 -49.279499
-14.7138 -29.314199 -46.409801
-14.7639 -29.0623 -49.279499
-17.640499 -29.490101 -49.279499
-17.6154 -29.745701 -46.409801
-17.606501 -29.8356 -43.394199
-14.6962 -29.402901 -43.394199
-14.7132 -29.3174 -40.1343
-17.615 -29.748899 -40.1343
-9.0712996 -27.699499 -43.394199
-11.8418 -28.688999 -43.394199
-9.1046 -27.618999 -40.1343
-11.8671 -28.6056 -40.1343
-9.3922997 -26.9244 -32.488899
-12.0853 -27.886101 -32.488899
-11.9472 -28.341499 -36.532001
-9.2102003 -27.3641 -36.532001
-14.8598 -28.580099 -32.488899
-14.767 -29.046801 -36.532001
-17.642099 -29.4743 -36.532001
-17.6887 -29.0007 -32.488899
-17.7561 -28.316999 -27.9067
-14.9939 -27.9063 -27.9067
-15.1455 -27.1441 -22.906799
-17.832199 -27.5436 -22.906799
-9.6553001 -26.2896 -27.9067
-12.2848 -27.228701 -27.9067
-9.9526997 -25.5716 -22.906799
-12.5104 -26.485001 -22.906799
-10.4657 -24.333099 -12.1387
-12.8995 -25.202299 -12.1387
-12.727 -25.771 -17.610399
-10.2382 -24.8822 -17.610399
-15.407 -25.829399 -12.1387
-15.2911 -26.412201 -17.610399
-17.905399 -26.801001 -17.610399
-17.9636 -26.2096 -12.1387
-17.955 -26.2974 10.0862
-17.905399 -26.8008 15.6265
-15.3898 -25.915899 10.0862
-15.2911 -26.4121 15.6265
-15.1812 -26.9646 20.991501
-17.850201 -27.3615 20.991501
-10.4319 -24.4146 10.0862
-10.2383 -24.882 15.6265
-12.727 -25.7708 15.6265
-12.8739 -25.286699 10.0862
-10.0227 -25.402599 20.991501
-12.5635 -26.309999 20.991501
-9.6931 -26.198299 30.601
-12.3135 -27.1341 30.601
-12.415 -26.799299 26.0326
-9.8269997 -25.875099 26.0326
-15.0132 -27.809299 30.601
-15.0814 -27.4662 26.0326
-17.799999 -27.870501 26.0326
-17.7658 -28.218599 30.601
-17.757999 -28.2971 34.547798
-14.9978 -27.8866 34.547798
-15.0308 -27.720699 37.962399
-17.774599 -28.1287 37.962399
-9.6629 -26.271099 34.547798
-12.2906 -27.209499 34.547798
-9.7277002 -26.114799 37.962399
-12.3397 -27.0476 37.962399
-10.1065 -25.200199 43.5513
-12.6271 -26.1003 43.5513
-12.4541 -26.6705 40.9338
-9.8785 -25.7507 40.9338
-15.2239 -26.7498 43.5513
-15.1077 -27.3342 40.9338
-17.8132 -27.7365 40.9338
-17.871599 -27.143499 43.5513
-17.9475 -26.3727 45.904099
-15.375 -25.9902 45.904099
-15.539 -25.1658 47.946301
-18.0299 -25.5362 47.946301
-10.403 -24.484501 45.904099
-12.8519 -25.3591 45.904099
-10.7246 -23.707899 47.946301
-13.0959 -24.5548 47.946301
-11.2713 -22.388201 50.9147
-13.5106 -23.187901 50.9147
-13.3264 -23.795099 49.631802
-11.0285 -22.974501 49.631802
-15.8177 -23.7649 50.9147
-15.6939 -24.387199 49.631802
-18.1077 -24.746201 49.631802
-18.169901 -24.1147 50.9147
-18.236799 -23.4356 57.0182
-18.241899 -23.383499 60.437599
-15.9508 -23.0956 57.0182
-15.961 -23.0443 60.437599
-15.9636 -23.0312 63.737099
-18.2432 -23.370199 63.737099
-11.5576 -21.697001 63.737099
-13.7277 -22.472 63.737099
-13.7239 -22.4848 60.437599
-11.5525 -21.709299 60.437599
-13.7087 -22.534901 57.0182
-11.5325 -21.7577 57.0182
-18.0613 -4.6464 -52.922298
-16.064501 -8.3821001 -53.594501
-17.6178 -4.3804998 -52.922298
-15.2646 -7.9022999 -53.594501
-12.8558 -11.5073 -54.258701
-14.0207 -12.206 -54.258701
-10.7577 -9.7870998 -54.258701
-11.7645 -10.6985 -54.258701
-14.5152 -7.3469 -53.594501
-13.8238 -6.7210002 -53.594501
-17.2024 -4.0725999 -52.922298
-16.819201 -3.7256 -52.922298
-11.9019 -16.17 -55.648201
-10.6207 -18.566999 -57.0172
-10.3588 -15.2443 -55.648201
-8.8488998 -17.504101 -57.0172
-7.3018999 -19.8193 -58.3041
-9.3080997 -21.0228 -58.3041
-7.5792999 -12.9655 -55.648201
-5.6573 -14.8874 -57.0172
-7.1889 -16.273899 -57.0172
-8.9131002 -14.1729 -55.648201
-3.6882 -16.856501 -58.3041
-5.4222999 -18.426399 -58.3041
-2.2121999 -18.3325 -58.666801
-4.0981998 -20.039801 -58.666801
-4.5208998 -19.524799 -58.710098
-2.6833999 -17.861401 -58.710098
-6.1423998 -21.554701 -58.666801
-6.5124998 -21.000799 -58.710098
-8.6382999 -22.2759 -58.710098
-8.3241997 -22.863501 -58.666801
-7.1223998 -25.112 -55.875099
-6.9386001 -25.4559 -54.1259
-4.7259998 -23.6744 -55.875099
-4.5093999 -23.9986 -54.1259
-4.2835002 -24.3367 -51.8895
-6.7470002 -25.8144 -51.8895
-0.40939999 -20.1353 -55.875099
-0.1337 -20.4111 -54.1259
-2.2335 -22.312 -54.1259
-2.4807999 -22.0105 -55.875099
0.1539 -20.698601 -51.8895
-1.9755 -22.626301 -51.8895
0.5916 -21.136299 -46.409801
-1.5828 -23.1047 -46.409801
-1.7458 -22.9062 -49.279499
0.41 -20.9547 -49.279499
-3.9396 -24.851299 -46.409801
-4.0823002 -24.6378 -49.279499
-6.5762 -26.1339 -49.279499
-6.4552002 -26.360399 -46.409801
-6.4126 -26.4401 -43.394199
-3.8894 -24.9265 -43.394199
-3.9377999 -24.854099 -40.1343
-6.4535999 -26.363199 -40.1343
0.65549999 -21.2003 -43.394199
-1.5255001 -23.174601 -43.394199
0.59390002 -21.1387 -40.1343
-1.5808001 -23.1073 -40.1343
0.0623 -20.607 -32.488899
-2.0576999 -22.5261 -32.488899
-1.7558 -22.893999 -36.532001
0.39879999 -20.943501 -36.532001
-4.3555002 -24.229 -32.488899
-4.0911002 -24.624701 -36.532001
-6.5837002 -26.1199 -36.532001
-6.8080001 -25.700199 -32.488899
-7.1318998 -25.094299 -27.9067
-4.7371998 -23.657801 -27.9067
-5.1689 -23.0116 -22.906799
-7.4981999 -24.408899 -22.906799
-0.42359999 -20.121201 -27.9067
-2.4935 -21.9951 -27.9067
-0.97310001 -19.5716 -22.906799
-2.9865999 -21.3943 -22.906799
-1.921 -18.6238 -12.1387
-3.8369 -20.3582 -12.1387
-3.46 -20.817499 -17.610399
-1.5008 -19.044001 -17.610399
-5.9136 -21.8971 -12.1387
-5.5833998 -22.391199 -17.610399
-7.8499999 -23.750799 -17.610399
-8.1301003 -23.226801 -12.1387
-8.0885 -23.304501 10.0862
-7.8501 -23.7507 15.6265
-5.8646002 -21.970501 10.0862
-5.5834999 -22.3911 15.6265
-5.2705002 -22.859501 20.991501
-7.5844998 -24.247601 20.991501
-1.8587 -18.6861 10.0862
-1.5009 -19.0439 15.6265
-3.4600999 -20.8174 15.6265
-3.7809999 -20.4263 10.0862
-1.1025 -19.442301 20.991501
-3.1026001 -21.252899 20.991501
-0.49349999 -20.0513 30.601
-2.5562999 -21.918699 30.601
-2.7781999 -21.648199 26.0326
-0.74089998 -19.8039 26.0326
-4.7921 -23.5756 30.601
-4.9864001 -23.2847 26.0326
-7.3434 -24.698601 26.0326
-7.1785002 -25.007099 30.601
-7.1413002 -25.076599 34.547798
-4.7483001 -23.6411 34.547798
-4.8422999 -23.500401 37.962399
-7.2210999 -24.927401 37.962399
-0.43779999 -20.107 34.547798
-2.5063 -21.979601 34.547798
-0.55739999 -19.9874 37.962399
-2.6136 -21.848801 37.962399
-1.2574 -19.287399 43.5513
-3.2416 -21.083599 43.5513
-2.8636 -21.544201 40.9338
-0.83609998 -19.7087 40.9338
-5.3922 -22.677401 43.5513
-5.0612001 -23.1728 40.9338
-7.4068999 -24.579901 40.9338
-7.6876998 -24.054399 43.5513
-8.0528002 -23.3713 45.904099
-5.8225002 -22.0334 45.904099
-6.2895002 -21.334499 47.946301
-8.4490995 -22.629999 47.946301
-1.8051 -18.7397 45.904099
-3.733 -20.4849 45.904099
-2.3994999 -18.1453 47.946301
-4.2662001 -19.8351 47.946301
-3.4096 -17.135201 50.9147
-5.1724 -18.731001 50.9147
-4.7698998 -19.221399 49.631802
-2.9609001 -17.5839 49.631802
-7.0830002 -20.1469 50.9147
-6.7305002 -20.6745 49.631802
-8.8233004 -21.929899 49.631802
-9.1224003 -21.3703 50.9147
-9.4441004 -20.7684 57.0182
-9.4687004 -20.7223 60.437599
-7.4622002 -19.5795 57.0182
-7.4912 -19.535999 60.437599
-7.4986 -19.5249 63.737099
-9.4750004 -20.710501 63.737099
-3.9386001 -16.606199 63.737099
-5.6469998 -18.1527 63.737099
-5.6385002 -18.163 60.437599
-3.9291999 -16.615601 60.437599
-5.6052999 -18.203501 57.0182
-3.8922 -16.652599 57.0182
-7.7572999 -5.2967 -54.258701
-8.3387003 -6.5240998 -54.258701
-12.1626 -4.4801998 -53.594501
-11.7634 -3.6373999 -53.594501
-9.0375004 -7.6889 -54.258701
-12.6425 -5.2800999 -53.594501
-16.164301 -2.9268999 -52.922298
-15.8983 -2.4835 -52.922298
-15.677 -2.0163 -52.922298
-13.1979 -6.0296001 -53.594501
-9.8462 -8.7802 -54.258701
-16.4722 -3.3422999 -52.922298
-3.6046 -7.0167999 -55.648201
-1.0934 -8.0570002 -57.0172
-1.9778 -9.9239998 -57.0172
-4.3748002 -8.6428003 -55.648201
1.4794 -9.1226997 -58.3041
0.47799999 -11.2366 -58.3041
-0.72549999 -13.2428 -58.3041
-3.0407 -11.6959 -57.0172
-5.3004999 -10.1859 -55.648201
-6.3719001 -11.6316 -55.648201
-4.2708998 -13.3559 -57.0172
-2.1184001 -15.1224 -58.3041
3.4078 -9.9215002 -58.666801
2.3188 -12.2205 -58.666801
1.7312 -11.9065 -58.710098
2.7922001 -9.6665001 -58.710098
1.0099 -14.4024 -58.666801
0.456 -14.0322 -58.710098
-1.02 -16.023899 -58.710098
-0.505 -16.4466 -58.666801
1.4658 -18.0639 -55.875099
1.7672 -18.3113 -54.1259
3.1296 -15.8187 -55.875099
3.4539001 -16.0354 -54.1259
3.7918999 -16.2612 -51.8895
2.0815001 -18.569201 -51.8895
5.7632999 -10.8972 -55.875099
6.1236 -11.0464 -54.1259
4.9110999 -13.6061 -54.1259
4.5672002 -13.4223 -55.875099
6.4993 -11.202 -51.8895
5.2697001 -13.7978 -51.8895
7.0711999 -11.4389 -46.409801
5.8155999 -14.0896 -46.409801
5.5890999 -13.9685 -49.279499
6.8339 -11.3406 -49.279499
4.3066001 -16.605101 -46.409801
4.0929999 -16.4625 -49.279499
2.3615 -18.799 -49.279499
2.5599999 -18.961901 -46.409801
2.6299 -19.0193 -43.394199
4.3818002 -16.655399 -43.394199
4.3092999 -16.607 -40.1343
2.5625 -18.964001 -40.1343
7.1546998 -11.4735 -43.394199
5.8952999 -14.1322 -43.394199
7.0742002 -11.4402 -40.1343
5.8185 -14.0911 -40.1343
6.3796 -11.1524 -32.488899
5.1553998 -13.7367 -32.488899
5.5750999 -13.9611 -36.532001
6.8193002 -11.3346 -36.532001
3.6842 -16.189301 -32.488899
4.0798998 -16.453699 -36.532001
2.3492 -18.789 -36.532001
1.9814 -18.487101 -32.488899
1.4503 -18.051201 -27.9067
3.1129999 -15.8076 -27.9067
2.4669001 -15.3759 -22.906799
0.84960002 -17.558201 -22.906799
5.7448001 -10.8895 -27.9067
4.5495 -13.4129 -27.9067
5.0268002 -10.5921 -22.906799
3.8641 -13.0465 -22.906799
3.7883 -10.0791 -12.1387
2.6819999 -12.4147 -12.1387
3.2060001 -12.6948 -17.610399
4.3374 -10.3065 -17.610399
1.3523999 -14.6312 -12.1387
1.8464 -14.9613 -17.610399
0.27270001 -17.084801 -17.610399
-0.1866 -16.7078 -12.1387
-0.1184 -16.7638 10.0862
0.2726 -17.0847 15.6265
1.4256999 -14.6802 10.0862
1.8463 -14.9612 15.6265
2.3146999 -15.2742 20.991501
0.70810002 -17.442101 20.991501
3.8698001 -10.1129 10.0862
4.3372002 -10.3065 15.6265
3.2059 -12.6947 15.6265
2.7597001 -12.4563 10.0862
4.8578 -10.5221 20.991501
3.7028 -12.9603 20.991501
5.6535001 -10.8517 30.601
4.4624 -13.3663 30.601
4.1538 -13.2014 26.0326
5.3302999 -10.7178 26.0326
3.0308001 -15.7527 30.601
2.7399001 -15.5583 26.0326
1.1034 -17.7666 26.0326
1.3739001 -17.988501 30.601
1.4348 -18.0385 34.547798
3.0962999 -15.7965 34.547798
2.9556 -15.7025 37.962399
1.304 -17.9312 37.962399
5.7262998 -10.8818 34.547798
4.5317998 -13.4034 34.547798
5.5700002 -10.8171 37.962399
4.3825998 -13.3237 37.962399
4.6553998 -10.4382 43.5513
3.5095999 -12.857 43.5513
4.0351 -13.1379 40.9338
5.2059002 -10.6663 40.9338
2.1326001 -15.1525 43.5513
2.628 -15.4836 40.9338
0.99940002 -17.6812 40.9338
0.5388 -17.3032 43.5513
-0.059900001 -16.8118 45.904099
1.4886 -14.7222 45.904099
0.78979999 -14.2553 47.946301
-0.70969999 -16.278601 47.946301
3.9396999 -10.1418 45.904099
2.8264999 -12.4919 45.904099
3.1631 -9.8200998 47.946301
2.0852001 -12.0957 47.946301
1.8434 -9.2735004 50.9147
0.82550001 -11.4224 50.9147
1.3851 -11.7215 49.631802
2.4296999 -9.5163002 49.631802
-0.39789999 -13.4617 50.9147
0.12970001 -13.8142 49.631802
-1.3233 -15.7749 49.631802
-1.8138 -15.3724 50.9147
-2.3413 -14.9395 57.0182
-2.3817999 -14.9063 60.437599
-0.96520001 -13.0826 57.0182
-1.0088 -13.0536 60.437599
-1.0199 -13.0461 63.737099
-2.3921001 -14.8978 63.737099
1.1522 -8.9871998 63.737099
0.1657 -11.0697 63.737099
0.17749999 -11.076 60.437599
1.1646 -8.9923 60.437599
0.2236 -11.1007 57.0182
1.2129 -9.0122995 57.0182
-15.5031 -1.5294 -52.922298
-11.4497 -2.7590001 -53.594501
-15.3777 -1.0278 -52.922298
-11.2234 -1.8541 -53.594501
-6.9710002 -2.7 -54.258701
-7.3006001 -4.0177002 -54.258701
-6.7712002 -1.3564 -54.258701
-11.0862 -0.93150002 -53.594501
-15.3016 -0.51639998 -52.922298
0.4066 -2.0632999 -57.0172
-2.2981999 -1.7970001 -55.648201
3.1777999 -2.3362 -58.3041
2.8336999 -4.6503 -58.3041
0.1027 -4.1069999 -57.0172
-2.5629001 -3.5768001 -55.648201
-2.9995 -5.3225002 -55.648201
-0.39860001 -6.1114998 -57.0172
2.2660999 -6.9197998 -58.3041
5.2550001 -2.5408001 -58.666801
4.5918999 -2.4755001 -58.710098
4.8807001 -5.0574002 -58.666801
4.2273002 -4.9274998 -58.710098
3.6257999 -7.3323002 -58.710098
4.2634001 -7.5257001 -58.666801
6.7031002 -8.2658005 -55.875099
7.0762 -8.3789997 -54.1259
7.3811002 -5.5548 -55.875099
7.7635002 -5.6308999 -54.1259
8.1623001 -5.7101998 -51.8895
7.4653001 -8.4969997 -51.8895
8.1801996 -2.8289001 -54.1259
7.7921 -2.7907 -55.875099
8.5847998 -2.8687 -51.8895
9.2007999 -2.9294 -46.409801
8.9453001 -2.9042001 -49.279499
8.7693996 -5.8309002 -46.409801
8.5174999 -5.7807999 -49.279499
7.8119001 -8.6021996 -49.279499
8.0576 -8.6766996 -46.409801
8.1442003 -8.7030001 -43.394199
8.8580999 -5.8485999 -43.394199
8.7726002 -5.8316002 -40.1343
8.0607996 -8.6777 -40.1343
9.2908001 -2.9382999 -43.394199
9.2040997 -2.9296999 -40.1343
8.4559002 -2.8559999 -32.488899
8.9294996 -2.9026999 -36.532001
8.0353003 -5.6848998 -32.488899
8.5019999 -5.7778001 -36.532001
7.7967 -8.5976 -36.532001
7.3413 -8.4594002 -32.488899
6.6838999 -8.2600002 -27.9067
7.3614998 -5.5509 -27.9067
6.5992999 -5.3993001 -22.906799
5.9401999 -8.0344 -22.906799
7.7722001 -2.7887001 -27.9067
6.9987998 -2.7125001 -22.906799
5.6648002 -2.5811999 -12.1387
6.2561998 -2.6394 -17.610399
5.2845998 -5.1378002 -12.1387
5.8674002 -5.2536998 -17.610399
5.2262001 -7.8178 -17.610399
4.6574998 -7.6452999 -12.1387
4.7419 -7.6708999 10.0862
5.2259998 -7.8176999 15.6265
5.3710999 -5.1550002 10.0862
5.8673 -5.2536998 15.6265
6.4198999 -5.3635998 20.991501
5.7652001 -7.9812999 20.991501
6.256 -2.6394 15.6265
5.7526002 -2.5897999 10.0862
6.8167 -2.6946001 20.991501
7.6739001 -2.779 30.601
7.3256998 -2.7447 26.0326
7.2645001 -5.5316 30.601
6.9214001 -5.4633999 26.0326
6.2544999 -8.1297998 26.0326
6.5893002 -8.2313004 30.601
6.6647 -8.2542 34.547798
7.3418002 -5.5469999 34.547798
7.1759 -5.5139999 37.962399
6.5028 -8.2051001 37.962399
7.7522998 -2.7867999 34.547798
7.5839 -2.7702 37.962399
6.5987 -2.6731999 43.5513
7.1917 -2.7314999 40.9338
6.2049999 -5.3209 43.5513
6.7894001 -5.4370999 40.9338
6.1257 -8.0907001 40.9338
5.5555 -7.9176998 43.5513
4.8143001 -7.6929002 45.904099
5.4454002 -5.1697998 45.904099
4.6209998 -5.0057998 47.946301
4.0100002 -7.4489002 47.946301
5.8278999 -2.5971999 45.904099
4.9913998 -2.5149 47.946301
3.5699 -2.3749001 50.9147
4.2013998 -2.4370999 49.631802
3.2200999 -4.7270999 50.9147
3.8424001 -4.8509002 49.631802
3.2502999 -7.2184 49.631802
2.6431 -7.0342002 50.9147
1.9901 -6.8361001 57.0182
1.9400001 -6.8209 60.437599
2.5509 -4.5939999 57.0182
2.4995 -4.5837998 60.437599
2.4863999 -4.5812001 63.737099
1.9272 -6.8169999 63.737099
2.8254001 -2.3015001 63.737099
2.8387001 -2.3029001 60.437599
2.8908 -2.3080001 57.0182
6.8868999 0 -58.263699
6.6248002 0 -58.410301
6.4924002 2.6626999 -58.410301
6.7532001 2.6884 -58.263699
6.3063998 0 -58.522598
6.1754999 2.6315 -58.522598
5.7879 5.2378998 -58.522598
6.1002002 5.3000002 -58.410301
6.3572998 5.3512001 -58.263699
5.7729001 2.5918 -58.606201
5.9018002 0 -58.606201
5.3912001 5.1589999 -58.606201
3.8887 10.1207 -58.606201
4.7614999 7.6767998 -58.606201
4.2624998 10.2755 -58.522598
5.1486001 7.7943001 -58.522598
4.7988 10.4977 -58.263699
5.7041001 7.9628 -58.263699
5.4533 7.8867002 -58.410301
4.5566001 10.3974 -58.410301
3.4152999 12.8067 -58.410301
3.6465001 12.9302 -58.263699
3.1345 12.6566 -58.522598
1.779 14.9163 -58.522598
2.0437 15.0932 -58.410301
2.2616999 15.2388 -58.263699
2.7778001 12.4659 -58.606201
1.4427 14.6916 -58.606201
-1.8442 18.7006 -58.606201
-0.1027 16.7768 -58.606201
-1.5582 18.986601 -58.522598
0.20999999 17.0334 -58.522598
-1.1477 19.3971 -58.263699
0.65880001 17.401699 -58.263699
0.4562 17.235399 -58.410301
-1.3329999 19.2118 -58.410301
-3.3094001 21.000999 -58.410301
-3.1431999 21.2036 -58.263699
-3.5114 20.754801 -58.522598
-5.6285 22.323799 -58.522598
-5.4516001 22.588499 -58.410301
-5.3060002 22.806499 -58.263699
-3.7681 20.442101 -58.606201
-5.8533001 21.987499 -58.606201
-10.4241 24.4335 -58.606201
-8.0789003 23.322599 -58.606201
-10.2693 24.807199 -58.522598
-7.8881998 23.6793 -58.522598
-10.0472 25.343599 -58.263699
-7.6146002 24.191299 -58.263699
-7.7381001 23.9601 -58.410301
-10.1475 25.1014 -58.410301
-12.6581 25.9981 -58.410301
-12.582 26.248899 -58.263699
-12.7506 25.693399 -58.522598
-15.3069 26.332701 -58.522598
-15.2448 26.645 -58.410301
-15.1937 26.902 -58.263699
-12.868 25.306299 -58.606201
-15.3858 25.936001 -58.606201
-20.5448 26.4466 -58.606201
-17.952999 26.317699 -58.606201
-20.5448 26.8512 -58.522598
-17.9133 26.720301 -58.522598
-20.5448 27.4317 -58.263699
-17.8564 27.298 -58.263699
-17.882099 27.037201 -58.410301
-20.5448 27.1696 -58.410301
-23.2075 27.037201 -58.410301
-23.2332 27.298 -58.263699
-23.1763 26.720301 -58.522598
-25.7827 26.332701 -58.522598
-25.844801 26.645 -58.410301
-25.896 26.902 -58.263699
-23.1366 26.317699 -58.606201
-25.7038 25.936001 -58.606201
-30.665501 24.4335 -58.606201
-28.2216 25.3062 -58.606201
-30.820299 24.807199 -58.522598
-28.3391 25.6933 -58.522598
-31.0425 25.343599 -58.263699
-28.507601 26.248899 -58.263699
-28.431499 25.997999 -58.410301
-30.9422 25.1014 -58.410301
-33.351501 23.9601 -58.410301
-33.474998 24.191299 -58.263699
-33.201401 23.6793 -58.522598
-35.461102 22.323799 -58.522598
-35.638 22.588499 -58.410301
-35.7836 22.8064 -58.263699
-33.0107 23.3225 -58.606201
-35.236401 21.9874 -58.606201
-39.245399 18.7006 -58.606201
-37.321602 20.442101 -58.606201
-39.531502 18.986601 -58.522598
-37.578201 20.754801 -58.522598
-39.942001 19.3971 -58.263699
-37.946499 21.203501 -58.263699
-37.780201 21.0009 -58.410301
-39.756599 19.2118 -58.410301
-41.545799 17.2353 -58.410301
-41.748402 17.4016 -58.263699
-41.299702 17.0333 -58.522598
-42.868599 14.9162 -58.522598
-43.133301 15.0931 -58.410301
-43.351299 15.2387 -58.263699
-40.987 16.776699 -58.606201
-42.532299 14.6915 -58.606201
-44.978298 10.1206 -58.606201
-43.867401 12.4659 -58.606201
-45.3521 10.2755 -58.522598
-44.224098 12.6565 -58.522598
-45.888401 10.4976 -58.263699
-44.736099 12.9302 -58.263699
-44.504902 12.8066 -58.410301
-45.646198 10.3973 -58.410301
-46.5429 7.8866 -58.410301
-46.793701 7.9626999 -58.263699
-46.238201 7.7941999 -58.522598
-46.877499 5.2378998 -58.522598
-47.1898 5.3000002 -58.410301
-47.4468 5.3511 -58.263699
-45.851101 7.6767998 -58.606201
-46.480801 5.1588998 -58.606201
-46.991402 0 -58.606201
-46.862499 2.5918 -58.606201
-47.396 0 -58.522598
-47.265099 2.6314001 -58.522598
-47.976501 0 -58.263699
-47.8428 2.6882999 -58.263699
-47.582001 2.6626 -58.410301
-47.714401 0 -58.410301
-47.582001 -2.6626999 -58.410301
-47.8428 -2.6884 -58.263699
-47.265099 -2.6315 -58.522598
-46.877499 -5.2378998 -58.522598
-47.1898 -5.3000998 -58.410301
-47.4468 -5.3512001 -58.263699
-46.862499 -2.5919001 -58.606201
-46.480801 -5.1589999 -58.606201
-44.978298 -10.1207 -58.606201
-45.851101 -7.6768999 -58.606201
-45.352001 -10.2755 -58.522598
-46.238201 -7.7943001 -58.522598
-45.888401 -10.4977 -58.263699
-46.793701 -7.9628 -58.263699
-46.542801 -7.8867002 -58.410301
-45.646198 -10.3974 -58.410301
-44.504902 -12.8067 -58.410301
-44.736099 -12.9303 -58.263699
-44.224098 -12.6566 -58.522598
-42.868599 -14.9163 -58.522598
-43.133301 -15.0932 -58.410301
-43.3512 -15.2388 -58.263699
-43.867298 -12.4659 -58.606201
-42.5322 -14.6916 -58.606201
-39.245399 -18.7006 -58.606201
-40.9869 -16.7768 -58.606201
-39.531399 -18.9867 -58.522598
-41.299599 -17.0334 -58.522598
-39.941898 -19.3972 -58.263699
-41.748402 -17.401699 -58.263699
-41.5457 -17.235399 -58.410301
-39.756599 -19.2118 -58.410301
-37.780102 -21.000999 -58.410301
-37.9464 -21.2036 -58.263699
-37.578201 -20.7549 -58.522598
-35.461102 -22.323799 -58.522598
-35.637901 -22.5886 -58.410301
-35.7836 -22.806499 -58.263699
-37.321499 -20.4422 -58.606201
-35.236301 -21.987499 -58.606201
-30.6654 -24.4335 -58.606201
-33.0107 -23.322599 -58.606201
-30.820299 -24.807301 -58.522598
-33.201302 -23.679399 -58.522598
-31.0424 -25.343599 -58.263699
-33.474998 -24.191299 -58.263699
-33.351398 -23.960199 -58.410301
-30.942101 -25.1015 -58.410301
-28.431499 -25.9981 -58.410301
-28.5075 -26.248899 -58.263699
-28.339001 -25.693399 -58.522598
-25.7827 -26.332701 -58.522598
-25.844801 -26.645 -58.410301
-25.895901 -26.9021 -58.263699
-28.2216 -25.306299 -58.606201
-25.7038 -25.936001 -58.606201
-20.5448 -26.4466 -58.606201
-23.1366 -26.317801 -58.606201
-20.5448 -26.8512 -58.522598
-23.176201 -26.720301 -58.522598
-20.5448 -27.4317 -58.263699
-23.233101 -27.298 -58.263699
-23.207399 -27.037201 -58.410301
-20.5448 -27.1696 -58.410301
-17.882099 -27.037201 -58.410301
-17.8564 -27.298 -58.263699
-17.9133 -26.720301 -58.522598
-15.3069 -26.332701 -58.522598
-15.2447 -26.645 -58.410301
-15.1936 -26.9021 -58.263699
-17.9529 -26.317801 -58.606201
-15.3858 -25.936001 -58.606201
-10.4241 -24.4335 -58.606201
-12.8679 -25.306299 -58.606201
-10.2693 -24.807301 -58.522598
-12.7505 -25.693399 -58.522598
-10.0471 -25.343599 -58.263699
-12.582 -26.248899 -58.263699
-12.6581 -25.9981 -58.410301
-10.1474 -25.1014 -58.410301
-7.7381001 -23.9601 -58.410301
-7.6145 -24.191299 -58.263699
-7.8881998 -23.6793 -58.522598
-5.6285 -22.323799 -58.522598
-5.4516001 -22.588499 -58.410301
-5.3060002 -22.806499 -58.263699
-8.0789003 -23.322599 -58.606201
-5.8532 -21.987499 -58.606201
-1.8442 -18.7006 -58.606201
-3.7679999 -20.442101 -58.606201
-1.5581 -18.986601 -58.522598
-3.5114 -20.754801 -58.522598
-1.1476001 -19.3971 -58.263699
-3.1431 -21.2036 -58.263699
-3.3094001 -21.000999 -58.410301
-1.3329999 -19.2118 -58.410301
0.4562 -17.235399 -58.410301
0.65880001 -17.401699 -58.263699
0.2101 -17.0334 -58.522598
1.779 -14.9163 -58.522598
2.0438001 -15.0932 -58.410301
2.2616999 -15.2388 -58.263699
-0.1026 -16.776699 -58.606201
1.4427 -14.6915 -58.606201
3.8887 -10.1207 -58.606201
2.7778001 -12.4659 -58.606201
4.2624998 -10.2755 -58.522598
3.1345999 -12.6566 -58.522598
4.7988 -10.4977 -58.263699
3.6465001 -12.9302 -58.263699
3.4154 -12.8067 -58.410301
4.5567002 -10.3973 -58.410301
5.4533 -7.8867002 -58.410301
5.7041001 -7.9628 -58.263699
5.1486001 -7.7943001 -58.522598
5.7879 -5.2378998 -58.522598
6.1002002 -5.3000002 -58.410301
6.3572998 -5.3511 -58.263699
4.7614999 -7.6767998 -58.606201
5.3912001 -5.1589999 -58.606201
5.7729001 -2.5918 -58.606201
6.1754999 -2.6315 -58.522598
6.7532001 -2.6884 -58.263699
6.4924002 -2.6626999 -58.410301
7.6185002 0 -57.023102
7.4812999 2.7600999 -57.023102
7.3578 0 -57.7104
7.2217999 2.7344999 -57.7104
6.8189998 5.4429998 -57.7104
7.0746999 5.4938998 -57.023102
6.9877 2.7114999 -58.077099
7.1226001 0 -58.077099
6.5883999 5.3971 -58.077099
5.0165 10.5878 -58.077099
5.9295998 8.0312004 -58.077099
5.2337999 10.6779 -57.7104
6.1546001 8.0994997 -57.7104
6.4040999 8.1752005 -57.023102
5.4747 10.7776 -57.023102
4.2916999 13.2751 -57.023102
4.0616999 13.1522 -57.7104
2.6531 15.5004 -57.7104
2.8699 15.6452 -57.023102
3.8543 13.0413 -58.077099
2.4576001 15.3697 -58.077099
-0.98100001 19.563801 -58.077099
0.8409 17.5511 -58.077099
-0.81470001 19.730101 -57.7104
1.0227 17.7003 -57.7104
1.2243 17.865801 -57.023102
-0.63029999 19.914499 -57.023102
-2.6789999 21.7691 -57.023102
-2.8445001 21.567499 -57.7104
-5.0444999 23.197901 -57.7104
-4.8996 23.4147 -57.023102
-2.9937 21.3857 -58.077099
-5.1750998 23.002399 -58.077099
-9.9569998 25.5613 -58.077099
-7.5035 24.399099 -58.077099
-9.8669996 25.778601 -57.7104
-7.3926001 24.606501 -57.7104
-7.2697001 24.8365 -57.023102
-9.7672005 26.019501 -57.023102
-12.3697 26.9489 -57.023102
-12.4454 26.6994 -57.7104
-15.1018 27.3638 -57.7104
-15.0509 27.619499 -57.023102
-12.5136 26.4744 -58.077099
-15.1477 27.133101 -58.077099
-20.5448 27.667299 -58.077099
-17.833401 27.532499 -58.077099
-20.5448 27.9025 -57.7104
-17.810301 27.7666 -57.7104
-17.7847 28.0261 -57.023102
-20.5448 28.1633 -57.023102
-23.304899 28.0261 -57.023102
-23.279301 27.7666 -57.7104
-25.987801 27.3638 -57.7104
-26.0387 27.619499 -57.023102
-23.2563 27.532499 -58.077099
-25.9419 27.133101 -58.077099
-31.1327 25.5613 -58.077099
-28.576 26.4743 -58.077099
-31.2227 25.778601 -57.7104
-28.6443 26.6994 -57.7104
-28.719999 26.9489 -57.023102
-31.3225 26.019501 -57.023102
-33.819901 24.8365 -57.023102
-33.696999 24.606501 -57.7104
-36.0452 23.197901 -57.7104
-36.189999 23.4147 -57.023102
-33.586102 24.399099 -58.077099
-35.914501 23.0023 -58.077099
-40.108601 19.5637 -58.077099
-38.096001 21.3857 -58.077099
-40.274899 19.73 -57.7104
-38.245201 21.567499 -57.7104
-38.410599 21.7691 -57.023102
-40.459301 19.9144 -57.023102
-42.3139 17.8657 -57.023102
-42.112301 17.7003 -57.7104
-43.742699 15.5003 -57.7104
-43.959499 15.6452 -57.023102
-41.9305 17.5511 -58.077099
-43.547199 15.3697 -58.077099
-46.106098 10.5878 -58.077099
-44.943901 13.0413 -58.077099
-46.323399 10.6778 -57.7104
-45.151299 13.1521 -57.7104
-45.381302 13.275 -57.023102
-46.564301 10.7776 -57.023102
-47.493698 8.1751003 -57.023102
-47.244202 8.0993996 -57.7104
-47.9086 5.4429998 -57.7104
-48.164299 5.4938002 -57.023102
-47.019199 8.0311003 -58.077099
-47.677898 5.3971 -58.077099
-48.2122 0 -58.077099
-48.077301 2.7114 -58.077099
-48.4473 0 -57.7104
-48.311401 2.7344999 -57.7104
-48.5709 2.76 -57.023102
-48.708099 0 -57.023102
-48.5709 -2.7600999 -57.023102
-48.311401 -2.7346001 -57.7104
-47.9086 -5.4429998 -57.7104
-48.164299 -5.4938998 -57.023102
-48.077301 -2.7114999 -58.077099
-47.677898 -5.3972001 -58.077099
-46.106098 -10.5879 -58.077099
-47.0191 -8.0312004 -58.077099
-46.323399 -10.6779 -57.7104
-47.244202 -8.0994997 -57.7104
-47.493698 -8.1752005 -57.023102
-46.564301 -10.7777 -57.023102
-45.381302 -13.2751 -57.023102
-45.151299 -13.1522 -57.7104
-43.742699 -15.5004 -57.7104
-43.959499 -15.6452 -57.023102
-44.943901 -13.0413 -58.077099
-43.5471 -15.3697 -58.077099
-40.108501 -19.563801 -58.077099
-41.9305 -17.551201 -58.077099
-40.274899 -19.730101 -57.7104
-42.112301 -17.700399 -57.7104
-42.3139 -17.865801 -57.023102
-40.459202 -19.914499 -57.023102
-38.4105 -21.7691 -57.023102
-38.245098 -21.5676 -57.7104
-36.045101 -23.197901 -57.7104
-36.189999 -23.4147 -57.023102
-38.095901 -21.385799 -58.077099
-35.914501 -23.002399 -58.077099
-31.132601 -25.5613 -58.077099
-33.586102 -24.399099 -58.077099
-31.222601 -25.778601 -57.7104
-33.696899 -24.6066 -57.7104
-33.819801 -24.8365 -57.023102
-31.322399 -26.019501 -57.023102
-28.7199 -26.948999 -57.023102
-28.644199 -26.6994 -57.7104
-25.987801 -27.3638 -57.7104
-26.038601 -27.6196 -57.023102
-28.575899 -26.4744 -58.077099
-25.9419 -27.1332 -58.077099
-20.5448 -27.6674 -58.077099
-23.256201 -27.532499 -58.077099
-20.5448 -27.902599 -57.7104
-23.279301 -27.7666 -57.7104
-23.3048 -28.0261 -57.023102
-20.5448 -28.1633 -57.023102
-17.7847 -28.0261 -57.023102
-17.810301 -27.7666 -57.7104
-15.1018 -27.3638 -57.7104
-15.0509 -27.619499 -57.023102
-17.8333 -27.532499 -58.077099
-15.1476 -27.1332 -58.077099
-9.9568996 -25.5613 -58.077099
-12.5136 -26.4744 -58.077099
-9.8669004 -25.778601 -57.7104
-12.4453 -26.6994 -57.7104
-12.3696 -26.948999 -57.023102
-9.7671003 -26.019501 -57.023102
-7.2697001 -24.8365 -57.023102
-7.3926001 -24.606501 -57.7104
-5.0444002 -23.197901 -57.7104
-4.8996 -23.4147 -57.023102
-7.5035 -24.399099 -58.077099
-5.1750998 -23.002399 -58.077099
-0.98100001 -19.563801 -58.077099
-2.9935999 -21.3857 -58.077099
-0.81470001 -19.730101 -57.7104
-2.8443999 -21.567499 -57.7104
-2.6789999 -21.7691 -57.023102
-0.63029999 -19.914499 -57.023102
1.2243 -17.865801 -57.023102
1.0227 -17.7003 -57.7104
2.6531 -15.5003 -57.7104
2.8699 -15.6452 -57.023102
0.84100002 -17.5511 -58.077099
2.4576001 -15.3697 -58.077099
5.0165 -10.5878 -58.077099
3.8543 -13.0413 -58.077099
5.2337999 -10.6778 -57.7104
4.0616999 -13.1522 -57.7104
4.2916999 -13.2751 -57.023102
5.4747 -10.7776 -57.023102
6.4042001 -8.1751003 -57.023102
6.1546001 -8.0993996 -57.7104
6.8189998 -5.4429998 -57.7104
7.0746999 -5.4938998 -57.023102
5.9295998 -8.0312004 -58.077099
6.5883999 -5.3971 -58.077099
6.9877 -2.7114999 -58.077099
7.2217999 -2.7344999 -57.7104
7.4812999 -2.7600999 -57.023102
-5.921 6.0574002 -54.569099
-5.3986001 4.5946999 -54.569099
-5.2481999 6.3361001 -54.742599
-4.7017999 4.8060999 -54.742599
-4.3074999 3.2298 -54.742599
-5.0216999 3.0876999 -54.569099
-4.1680002 4.9679999 -54.996201
-4.7328 6.5496001 -54.996201
-3.7605 3.3385999 -54.996201
-3.4300001 0 -54.996201
-3.5134001 1.6773 -54.996201
-3.9877999 0 -54.742599
-4.0685 1.6226 -54.742599
-4.7932 1.5513 -54.569099
-4.7161002 0 -54.569099
-9.3521996 11.1926 -54.569099
-8.3099003 10.0411 -54.569099
-8.8373003 11.7075 -54.742599
-7.7470002 10.5031 -54.742599
-6.7795 9.1976995 -54.742599
-7.3850002 8.7931004 -54.569099
-7.3158002 10.857 -54.996201
-8.4427996 12.102 -54.996201
-6.3157001 9.5075998 -54.996201
-5.4517002 8.0671997 -54.996201
-5.9436998 7.8042998 -54.742599
-6.5858998 7.461 -54.569099
-14.4874 14.6238 -54.569099
-13.0838 13.9589 -54.569099
-14.2087 15.2966 -54.742599
-12.7405 14.6011 -54.742599
-11.3471 13.7653 -54.742599
-11.7517 13.1598 -54.569099
-12.4776 15.0931 -54.996201
-13.9953 15.812 -54.996201
-11.0372 14.2291 -54.996201
-9.6878004 13.229 -54.996201
-10.0417 12.7978 -54.742599
-10.5037 12.2349 -54.569099
-20.5448 15.8287 -54.569099
-18.993601 15.7515 -54.569099
-20.5448 16.5569 -54.742599
-18.922199 16.4762 -54.742599
-17.315001 16.237301 -54.742599
-17.4571 15.5231 -54.569099
-18.8675 17.031401 -54.996201
-20.5448 17.114799 -54.996201
-17.2062 16.7843 -54.996201
-15.5768 16.376801 -54.996201
-15.7387 15.843 -54.742599
-15.9501 15.1462 -54.569099
-26.6022 14.6238 -54.569099
-25.1395 15.1462 -54.569099
-26.880899 15.2966 -54.742599
-25.350901 15.843 -54.742599
-23.774599 16.2372 -54.742599
-23.6325 15.5231 -54.569099
-25.5128 16.376801 -54.996201
-27.0944 15.812 -54.996201
-23.8834 16.7843 -54.996201
-22.222099 17.031401 -54.996201
-22.1674 16.4762 -54.742599
-22.0961 15.7515 -54.569099
-31.7374 11.1925 -54.569099
-30.585899 12.2349 -54.569099
-32.2523 11.7075 -54.742599
-31.047899 12.7978 -54.742599
-29.7425 13.7653 -54.742599
-29.3379 13.1598 -54.569099
-31.4018 13.229 -54.996201
-32.646801 12.102 -54.996201
-30.052401 14.229 -54.996201
-28.612 15.0931 -54.996201
-28.3491 14.6011 -54.742599
-28.0058 13.9589 -54.569099
-35.168598 6.0573001 -54.569099
-34.5037 7.461 -54.569099
-35.8414 6.336 -54.742599
-35.145901 7.8042998 -54.742599
-34.310101 9.1976004 -54.742599
-33.704601 8.7931004 -54.569099
-35.637901 8.0671997 -54.996201
-36.3568 6.5495 -54.996201
-34.773899 9.5074997 -54.996201
-33.7738 10.857 -54.996201
-33.342602 10.5031 -54.742599
-32.779701 10.0411 -54.569099
-36.373501 0 -54.569099
-36.296398 1.5512 -54.569099
-37.1017 0 -54.742599
-37.021099 1.6226 -54.742599
-36.782101 3.2298 -54.742599
-36.067902 3.0876999 -54.569099
-37.576199 1.6772 -54.996201
-37.659599 0 -54.996201
-37.329102 3.3385999 -54.996201
-36.9216 4.9679999 -54.996201
-36.387798 4.8060002 -54.742599
-35.691002 4.5946999 -54.569099
-35.168598 -6.0574002 -54.569099
-35.691002 -4.5946999 -54.569099
-35.8414 -6.3361001 -54.742599
-36.387798 -4.8060999 -54.742599
-36.782101 -3.2298 -54.742599
-36.067902 -3.0878 -54.569099
-36.9216 -4.9681001 -54.996201
-36.3568 -6.5496001 -54.996201
-37.329102 -3.3387001 -54.996201
-37.576199 -1.6773 -54.996201
-37.021 -1.6227 -54.742599
-36.296299 -1.5513 -54.569099
-31.7374 -11.1926 -54.569099
-32.779701 -10.0412 -54.569099
-32.2523 -11.7076 -54.742599
-33.342602 -10.5032 -54.742599
-34.310101 -9.1976995 -54.742599
-33.704601 -8.7931995 -54.569099
-33.7738 -10.857 -54.996201
-32.646801 -12.102 -54.996201
-34.7738 -9.5075998 -54.996201
-35.637901 -8.0672998 -54.996201
-35.145901 -7.8042998 -54.742599
-34.5037 -7.4611001 -54.569099
-26.6021 -14.6238 -54.569099
-28.0058 -13.9589 -54.569099
-26.8808 -15.2967 -54.742599
-28.3491 -14.6012 -54.742599
-29.742399 -13.7653 -54.742599
-29.3379 -13.1599 -54.569099
-28.612 -15.0931 -54.996201
-27.094299 -15.812 -54.996201
-30.052299 -14.2291 -54.996201
-31.4018 -13.2291 -54.996201
-31.047899 -12.7979 -54.742599
-30.585899 -12.235 -54.569099
-20.5448 -15.8287 -54.569099
-22.096001 -15.7516 -54.569099
-20.5448 -16.556999 -54.742599
-22.1674 -16.476299 -54.742599
-23.774599 -16.237301 -54.742599
-23.6325 -15.5231 -54.569099
-22.222099 -17.031401 -54.996201
-20.5448 -17.114799 -54.996201
-23.8834 -16.784401 -54.996201
-25.5128 -16.3769 -54.996201
-25.350901 -15.8431 -54.742599
-25.1395 -15.1462 -54.569099
-14.4874 -14.6238 -54.569099
-15.9501 -15.1462 -54.569099
-14.2087 -15.2966 -54.742599
-15.7387 -15.843 -54.742599
-17.315001 -16.237301 -54.742599
-17.457001 -15.5231 -54.569099
-15.5767 -16.376801 -54.996201
-13.9952 -15.812 -54.996201
-17.2062 -16.784401 -54.996201
-18.8675 -17.031401 -54.996201
-18.9221 -16.476299 -54.742599
-18.9935 -15.7516 -54.569099
-9.3521996 -11.1926 -54.569099
-10.5036 -12.2349 -54.569099
-8.8372002 -11.7075 -54.742599
-10.0417 -12.7978 -54.742599
-11.3471 -13.7653 -54.742599
-11.7517 -13.1598 -54.569099
-9.6878004 -13.229 -54.996201
-8.4427996 -12.102 -54.996201
-11.0372 -14.2291 -54.996201
-12.4775 -15.0931 -54.996201
-12.7405 -14.6011 -54.742599
-13.0837 -13.9589 -54.569099
-5.921 -6.0574002 -54.569099
-6.5858998 -7.461 -54.569099
-5.2481999 -6.3361001 -54.742599
-5.9436002 -7.8042998 -54.742599
-6.7795 -9.1976995 -54.742599
-7.3849001 -8.7931004 -54.569099
-5.4517002 -8.0671997 -54.996201
-4.7328 -6.5495 -54.996201
-6.3157001 -9.5075998 -54.996201
-7.3157001 -10.857 -54.996201
-7.7469001 -10.5031 -54.742599
-8.3098001 -10.0411 -54.569099
-4.7932 -1.5512 -54.569099
-4.0685 -1.6226 -54.742599
-4.3074999 -3.2298 -54.742599
-5.0216999 -3.0876999 -54.569099
-3.5134001 -1.6773 -54.996201
-3.7604001 -3.3385999 -54.996201
-4.1680002 -4.9679999 -54.996201
-4.7017999 -4.8060999 -54.742599
-5.3986001 -4.5946999 -54.569099
-17.312201 0 -52.448299
-17.327999 0.3168 -52.448299
-16.9811 0.35100001 -52.587799
-16.9636 0 -52.587799
-17.374701 0.63059998 -52.448299
-17.032801 0.69859999 -52.587799
-17.5583 1.237 -52.448299
-17.2362 1.3705 -52.587799
-17.118 1.0395 -52.587799
-17.451599 0.93830001 -52.448299
-17.694099 1.5237 -52.448299
-17.3867 1.688 -52.587799
-17.8573 1.7957 -52.448299
-17.5674 1.9894 -52.587799
-18.2591 2.2858 -52.448299
-18.012501 2.5323 -52.587799
-17.776699 2.2718 -52.587799
-18.0462 2.0506001 -52.448299
-18.4942 2.4986 -52.448299
-18.273001 2.7681 -52.587799
-18.7491 2.6875 -52.448299
-18.555401 2.9772999 -52.587799
-19.3078 2.9865 -52.448299
-19.1744 3.3085999 -52.587799
-18.8568 3.1580999 -52.587799
-19.021099 2.8506999 -52.448299
-19.606501 3.0931001 -52.448299
-19.505301 3.4267001 -52.587799
-19.9142 3.1701 -52.448299
-19.846201 3.5120001 -52.587799
-20.5448 3.2325001 -52.448299
-20.5448 3.5811999 -52.587799
-20.1938 3.5637 -52.587799
-20.228001 3.2168 -52.448299
-20.861601 3.2168 -52.448299
-20.8958 3.5637 -52.587799
-21.1754 3.1701 -52.448299
-21.243401 3.5120001 -52.587799
-21.781799 2.9865 -52.448299
-21.9153 3.3085999 -52.587799
-21.584299 3.4267001 -52.587799
-21.483101 3.0931001 -52.448299
-22.068501 2.8506999 -52.448299
-22.2328 3.1580999 -52.587799
-22.3405 2.6875 -52.448299
-22.534201 2.9772999 -52.587799
-22.830601 2.2857001 -52.448299
-23.077101 2.5322001 -52.587799
-22.816601 2.7681 -52.587799
-22.5954 2.4986 -52.448299
-23.0434 2.0506001 -52.448299
-23.312901 2.2716999 -52.587799
-23.2323 1.7957 -52.448299
-23.5222 1.9894 -52.587799
-23.5313 1.237 -52.448299
-23.853399 1.3704 -52.587799
-23.7029 1.688 -52.587799
-23.3955 1.5237 -52.448299
-23.638 0.93830001 -52.448299
-23.9716 1.0395 -52.587799
-23.714899 0.63050002 -52.448299
-24.056801 0.69849998 -52.587799
-23.7773 0 -52.448299
-24.125999 0 -52.587799
-24.1085 0.35089999 -52.587799
-23.7616 0.3168 -52.448299
-23.7616 -0.3168 -52.448299
-24.1085 -0.35100001 -52.587799
-23.714899 -0.63059998 -52.448299
-24.056801 -0.69859999 -52.587799
-23.5313 -1.2371 -52.448299
-23.853399 -1.3705 -52.587799
-23.9715 -1.0396 -52.587799
-23.637899 -0.93839997 -52.448299
-23.3955 -1.5237 -52.448299
-23.7029 -1.6881 -52.587799
-23.2323 -1.7958 -52.448299
-23.5221 -1.9894 -52.587799
-22.8305 -2.2858 -52.448299
-23.077 -2.5323 -52.587799
-23.312901 -2.2718 -52.587799
-23.0434 -2.0506001 -52.448299
-22.5954 -2.4986999 -52.448299
-22.8165 -2.7681 -52.587799
-22.3405 -2.6875 -52.448299
-22.534201 -2.9774001 -52.587799
-21.781799 -2.9865 -52.448299
-21.915199 -3.3085999 -52.587799
-22.2328 -3.1582 -52.587799
-22.068501 -2.8506999 -52.448299
-21.483101 -3.0932 -52.448299
-21.584299 -3.4268 -52.587799
-21.175301 -3.1702001 -52.448299
-21.243401 -3.5121 -52.587799
-20.5448 -3.2326 -52.448299
-20.5448 -3.5811999 -52.587799
-20.8957 -3.5637 -52.587799
-20.861601 -3.2168 -52.448299
-20.228001 -3.2168 -52.448299
-20.1938 -3.5637 -52.587799
-19.9142 -3.1701 -52.448299
-19.846201 -3.5120001 -52.587799
-19.307699 -2.9865 -52.448299
-19.174299 -3.3085999 -52.587799
-19.505199 -3.4268 -52.587799
-19.6064 -3.0932 -52.448299
-19.021099 -2.8506999 -52.448299
-18.856701 -3.1582 -52.587799
-18.749001 -2.6875 -52.448299
-18.555401 -2.9774001 -52.587799
-18.259001 -2.2858 -52.448299
-18.012501 -2.5323 -52.587799
-18.273001 -2.7681 -52.587799
-18.4942 -2.4986 -52.448299
-18.0462 -2.0506001 -52.448299
-17.776699 -2.2718 -52.587799
-17.8573 -1.7957 -52.448299
-17.5674 -1.9894 -52.587799
-17.5583 -1.237 -52.448299
-17.2362 -1.3705 -52.587799
-17.3866 -1.688 -52.587799
-17.694099 -1.5237 -52.448299
-17.451599 -0.93830001 -52.448299
-17.118 -1.0395 -52.587799
-17.374701 -0.63059998 -52.448299
-17.032801 -0.69859999 -52.587799
-16.9811 -0.35100001 -52.587799
-17.327999 -0.3168 -52.448299
-17.5313 0 -52.361198
-17.546 0.29530001 -52.361198
-17.686501 0 -52.3139
-17.698601 0.2807 -52.3139
-17.738001 0.55830002 -52.3139
-17.5895 0.58789998 -52.361198
-18.226999 0 -52.289101
-18.173901 0.2358 -52.289101
-17.8494 0.2669 -52.2939
-17.843599 0 -52.2939
-18.2495 0.45660001 -52.289101
-17.880899 0.52990001 -52.2939
-18.4034 0.88700002 -52.289101
-18.0492 1.0337 -52.2939
-17.9524 0.78490001 -52.2939
-18.264099 0.68940002 -52.289101
-17.9041 1.0937999 -52.3139
-17.8078 0.82990003 -52.3139
-17.6612 0.87480003 -52.361198
-17.7607 1.1532 -52.361198
-17.8873 1.4204 -52.361198
-18.0226 1.3485 -52.3139
-18.1653 1.5899 -52.3139
-18.0394 1.6741 -52.361198
-18.444599 1.1252 -52.289101
-18.1567 1.2781 -52.2939
-18.5989 1.3002 -52.289101
-18.286501 1.5089999 -52.2939
-18.905899 1.6389 -52.289101
-18.6348 1.91 -52.2939
-18.4501 1.7172 -52.2939
-18.701599 1.5096999 -52.289101
-18.523701 2.0211 -52.3139
-18.333799 1.8141 -52.3139
-18.2155 1.9117 -52.361198
-18.4139 2.1308999 -52.361198
-18.6332 2.3292999 -52.361198
-18.7307 2.211 -52.3139
-18.954901 2.3794999 -52.3139
-18.8708 2.5053999 -52.361198
-19.035101 1.8432 -52.289101
-18.8276 2.0947001 -52.2939
-19.2446 1.9459 -52.289101
-19.035801 2.2583001 -52.2939
-19.657801 2.1414001 -52.289101
-19.511101 2.4956 -52.2939
-19.266701 2.3880999 -52.2939
-19.4196 2.1001 -52.289101
-19.451 2.6407001 -52.3139
-19.196301 2.5222001 -52.3139
-19.124399 2.6575 -52.361198
-19.3916 2.7841001 -52.361198
-19.670099 2.8836 -52.361198
-19.714899 2.737 -52.3139
-19.9865 2.8067999 -52.3139
-19.957001 2.9553001 -52.361198
-19.8554 2.2806001 -52.289101
-19.759899 2.5924001 -52.2939
-20.0882 2.2953 -52.289101
-20.0149 2.6638999 -52.2939
-20.5448 2.3178 -52.289101
-20.5448 2.7012 -52.2939
-20.277901 2.6954 -52.2939
-20.309 2.3708999 -52.289101
-20.5448 2.8583 -52.3139
-20.264099 2.8462 -52.3139
-20.2495 2.9988 -52.361198
-20.5448 3.0135 -52.361198
-20.840099 2.9988 -52.361198
-20.8255 2.8462 -52.3139
-21.1031 2.8067999 -52.3139
-21.1327 2.9553001 -52.361198
-20.7806 2.3708999 -52.289101
-20.811701 2.6954 -52.2939
-21.0014 2.2953 -52.289101
-21.074699 2.6638999 -52.2939
-21.431801 2.1413 -52.289101
-21.578501 2.4956 -52.2939
-21.3297 2.5924001 -52.2939
-21.2342 2.2806001 -52.289101
-21.638599 2.6407001 -52.3139
-21.374701 2.737 -52.3139
-21.4196 2.8835001 -52.361198
-21.698 2.7841001 -52.361198
-21.9653 2.6575 -52.361198
-21.893299 2.5221 -52.3139
-22.134701 2.3794999 -52.3139
-22.218901 2.5053999 -52.361198
-21.67 2.1001 -52.289101
-21.822901 2.3880999 -52.2939
-21.844999 1.9459 -52.289101
-22.053801 2.2583001 -52.2939
-22.183701 1.6389 -52.289101
-22.4548 1.91 -52.2939
-22.261999 2.0947001 -52.2939
-22.054501 1.8432 -52.289101
-22.565901 2.0211 -52.3139
-22.3589 2.211 -52.3139
-22.456499 2.3292999 -52.361198
-22.675699 2.1308 -52.361198
-22.8741 1.9116 -52.361198
-22.755899 1.8141 -52.3139
-22.924299 1.5899 -52.3139
-23.0502 1.674 -52.361198
-22.388 1.5096999 -52.289101
-22.6395 1.7172 -52.2939
-22.4907 1.3002 -52.289101
-22.803101 1.5089 -52.2939
-22.686199 0.88700002 -52.289101
-23.0404 1.0337 -52.2939
-22.932899 1.2781 -52.2939
-22.645 1.1251 -52.289101
-23.185499 1.0937999 -52.3139
-23.066999 1.3485 -52.3139
-23.202299 1.4204 -52.361198
-23.328899 1.1532 -52.361198
-23.4284 0.87470001 -52.361198
-23.281799 0.82990003 -52.3139
-23.351601 0.55830002 -52.3139
-23.500099 0.58780003 -52.361198
-22.825399 0.68940002 -52.289101
-23.137199 0.78490001 -52.2939
-22.840099 0.45649999 -52.289101
-23.2087 0.5298 -52.2939
-22.8626 0 -52.289101
-23.246 0 -52.2939
-23.2402 0.2669 -52.2939
-22.915701 0.2358 -52.289101
-23.403099 0 -52.3139
-23.391001 0.28060001 -52.3139
-23.5436 0.29530001 -52.361198
-23.5583 0 -52.361198
-23.5436 -0.29539999 -52.361198
-23.391001 -0.2807 -52.3139
-23.351601 -0.55839998 -52.3139
-23.500099 -0.58789998 -52.361198
-22.915701 -0.2359 -52.289101
-23.2402 -0.26699999 -52.2939
-22.840099 -0.45660001 -52.289101
-23.2087 -0.52990001 -52.2939
-22.686199 -0.88700002 -52.289101
-23.0404 -1.0337 -52.2939
-23.137199 -0.78490001 -52.2939
-22.825399 -0.68949997 -52.289101
-23.185499 -1.0939 -52.3139
-23.281799 -0.82990003 -52.3139
-23.428301 -0.87480003 -52.361198
-23.328899 -1.1533 -52.361198
-23.202299 -1.4205 -52.361198
-23.0669 -1.3485 -52.3139
-22.924299 -1.59 -52.3139
-23.0502 -1.6741 -52.361198
-22.644899 -1.1252 -52.289101
-22.932899 -1.2781 -52.2939
-22.4907 -1.3002 -52.289101
-22.803101 -1.5089999 -52.2939
-22.183701 -1.6390001 -52.289101
-22.4548 -1.9101 -52.2939
-22.6395 -1.7172 -52.2939
-22.388 -1.5096999 -52.289101
-22.565901 -2.0211999 -52.3139
-22.7558 -1.8142 -52.3139
-22.8741 -1.9117 -52.361198
-22.6756 -2.1308999 -52.361198
-22.4564 -2.3292999 -52.361198
-22.3589 -2.2111001 -52.3139
-22.134701 -2.3794999 -52.3139
-22.2188 -2.5053999 -52.361198
-22.054501 -1.8432 -52.289101
-22.261999 -2.0947001 -52.2939
-21.844999 -1.9459 -52.289101
-22.053699 -2.2584 -52.2939
-21.431801 -2.1414001 -52.289101
-21.578501 -2.4956 -52.2939
-21.822901 -2.3880999 -52.2939
-21.669901 -2.1001999 -52.289101
-21.638599 -2.6408 -52.3139
-21.893299 -2.5222001 -52.3139
-21.9652 -2.6575999 -52.361198
-21.698 -2.7841001 -52.361198
-21.4195 -2.8836 -52.361198
-21.374701 -2.737 -52.3139
-21.1031 -2.8069 -52.3139
-21.132601 -2.9553001 -52.361198
-21.2342 -2.2807 -52.289101
-21.3297 -2.5924001 -52.2939
-21.001301 -2.2953999 -52.289101
-21.074699 -2.6638999 -52.2939
-20.5448 -2.3178 -52.289101
-20.5448 -2.7012 -52.2939
-20.811701 -2.6954 -52.2939
-20.7806 -2.3708999 -52.289101
-20.5448 -2.8583 -52.3139
-20.825399 -2.8462 -52.3139
-20.840099 -2.9988 -52.361198
-20.5448 -3.0135 -52.361198
-20.249399 -2.9988 -52.361198
-20.264099 -2.8462 -52.3139
-19.9865 -2.8067999 -52.3139
-19.9569 -2.9553001 -52.361198
-20.308901 -2.3708999 -52.289101
-20.2778 -2.6954 -52.2939
-20.0882 -2.2953 -52.289101
-20.0149 -2.6638999 -52.2939
-19.657801 -2.1414001 -52.289101
-19.511101 -2.4956 -52.2939
-19.759899 -2.5924001 -52.2939
-19.8554 -2.2807 -52.289101
-19.450899 -2.6407001 -52.3139
-19.714899 -2.737 -52.3139
-19.67 -2.8836 -52.361198
-19.3916 -2.7841001 -52.361198
-19.1243 -2.6575 -52.361198
-19.196301 -2.5222001 -52.3139
-18.9548 -2.3794999 -52.3139
-18.870701 -2.5053999 -52.361198
-19.4196 -2.1001999 -52.289101
-19.266701 -2.3880999 -52.2939
-19.2446 -1.9459 -52.289101
-19.035801 -2.2583001 -52.2939
-18.9058 -1.6389 -52.289101
-18.634701 -1.91 -52.2939
-18.8276 -2.0947001 -52.2939
-19.035101 -1.8432 -52.289101
-18.5236 -2.0211 -52.3139
-18.7307 -2.2111001 -52.3139
-18.633101 -2.3292999 -52.361198
-18.4139 -2.1308999 -52.361198
-18.2155 -1.9117 -52.361198
-18.3337 -1.8141 -52.3139
-18.1653 -1.5899 -52.3139
-18.0394 -1.6741 -52.361198
-18.701599 -1.5096999 -52.289101
-18.4501 -1.7172 -52.2939
-18.5989 -1.3002 -52.289101
-18.2864 -1.5089999 -52.2939
-18.4034 -0.88700002 -52.289101
-18.0492 -1.0337 -52.2939
-18.1567 -1.2781 -52.2939
-18.444599 -1.1252 -52.289101
-17.9041 -1.0937999 -52.3139
-18.0226 -1.3485 -52.3139
-17.8873 -1.4204 -52.361198
-17.7607 -1.1532 -52.361198
-17.6612 -0.87470001 -52.361198
-17.8078 -0.82990003 -52.3139
-17.738001 -0.55830002 -52.3139
-17.5895 -0.58780003 -52.361198
-18.264099 -0.68940002 -52.289101
-17.9524 -0.78490001 -52.2939
-18.2495 -0.45660001 -52.289101
-17.880899 -0.52990001 -52.2939
-17.8494 -0.2669 -52.2939
-18.173901 -0.2358 -52.289101
-17.698601 -0.2807 -52.3139
-17.546 -0.29530001 -52.361198
1.2507 9.0279999 53.271801
2.0293 6.848 53.271801
2.0551 6.8558002 52.971802
1.2756 9.0382996 52.971802
2.5910001 4.6020002 53.271801
2.6173999 4.6072001 52.971802
2.6573999 4.6152 52.702599
2.0941 6.8676 52.702599
1.3133 9.0538998 52.702599
3.0465 0 53.271801
3.0734999 0 52.971802
2.9584 2.3146 52.971802
2.9315 2.312 53.271801
3.1142001 0 52.702599
2.9988999 2.3185999 52.702599
-3.8631999 16.681601 53.271801
-2.3097 14.9654 53.271801
-2.2888999 14.9825 52.971802
-3.8441999 16.7006 52.971802
-0.93120003 13.1054 53.271801
-0.90880001 13.1203 52.971802
-0.87489998 13.143 52.702599
-2.2574 15.0084 52.702599
-3.8153 16.729401 52.702599
0.28349999 11.1327 52.971802
0.2597 11.12 53.271801
0.3195 11.1519 52.702599
-11.5168 21.7955 53.271801
-9.4247999 20.804501 53.271801
-9.4120998 20.8283 52.971802
-11.5065 21.8204 52.971802
-7.4394002 19.6136 53.271801
-7.4245 19.636 52.971802
-7.4018002 19.669901 52.702599
-9.3929005 20.864201 52.702599
-11.4909 21.858101 52.702599
-5.5623002 18.255899 52.971802
-5.5794001 18.2351 53.271801
-5.5363998 18.287399 52.702599
-20.5448 23.591299 53.271801
-18.2328 23.476299 53.271801
-18.2302 23.503099 52.971802
-20.5448 23.6182 52.971802
-15.9428 23.135799 53.271801
-15.9375 23.162201 52.971802
-15.9296 23.2022 52.702599
-18.2262 23.543699 52.702599
-20.5448 23.659 52.702599
-13.689 22.5998 52.971802
-13.6968 22.573999 53.271801
-13.6771 22.6388 52.702599
-29.5728 21.7955 53.271801
-27.392799 22.573999 53.271801
-27.4006 22.5998 52.971802
-29.583099 21.8204 52.971802
-25.146799 23.135799 53.271801
-25.152 23.162201 52.971802
-25.16 23.2022 52.702599
-27.412399 22.6388 52.702599
-29.5987 21.858101 52.702599
-22.8594 23.503099 52.971802
-22.8568 23.476299 53.271801
-22.8634 23.543699 52.702599
-37.226299 16.681499 53.271801
-35.510201 18.2351 53.271801
-35.527302 18.255899 52.971802
-37.245399 16.7006 52.971802
-33.6502 19.6136 53.271801
-33.6651 19.636 52.971802
-33.687801 19.669901 52.702599
-35.5532 18.287399 52.702599
-37.2742 16.729401 52.702599
-31.6775 20.8283 52.971802
-31.664801 20.804501 53.271801
-31.696699 20.864201 52.702599
-42.340302 9.0279999 53.271801
-41.3493 11.12 53.271801
-41.3731 11.1327 52.971802
-42.3652 9.0382996 52.971802
-40.158298 13.1054 53.271801
-40.180801 13.1203 52.971802
-40.214699 13.143 52.702599
-41.409 11.1519 52.702599
-42.402901 9.0538998 52.702599
-38.800701 14.9825 52.971802
-38.7799 14.9654 53.271801
-38.832199 15.0084 52.702599
-44.136101 0 53.271801
-44.021099 2.312 53.271801
-44.047901 2.3146 52.971802
-44.162998 0 52.971802
-43.680599 4.6020002 53.271801
-43.707001 4.6072001 52.971802
-43.747002 4.6152 52.702599
-44.088501 2.3185999 52.702599
-44.2038 0 52.702599
-43.1446 6.8558002 52.971802
-43.118801 6.848 53.271801
-43.183601 6.8676 52.702599
-42.340302 -9.0279999 53.271801
