# .PCD v0.7 - Point Cloud Data file format
VERSION 0.7
FIELDS x y z
SIZE 4 4 4
TYPE F F F
COUNT 1 1 1
WIDTH 1680
HEIGHT 1
VIEWPOINT 0 0 0 1 0 0 0
POINTS 1680
DATA ascii
5.8227301 -5.1889801 -12.1691
-0.82641602 7.4093499 -25.649401
5.09232 -5.26056 -12.4347
-0.54013002 7.4528198 -25.4522
18.337999 0.99720001 -14.1764
18.4228 -0.377211 -13.8549
6.9681301 -5.1258898 -13.8085
1.44892 7.8573298 -18.363001
18.4247 0.52812302 -14.6837
18.491301 -0.130188 -15.2901
18.5184 -2.4290299 -6.8751798
18.563499 -3.2371299 -6.25703
18.572599 -3.27228 -6.65628
2.38307 7.8979101 -18.249399
2.5806799 7.9118199 -18.117001
17.9872 -4.1556802 -10.1498
16.0571 -4.2328701 -7.0862498
16.187901 -4.21772 -6.7256398
16.2619 -4.2159901 -7.1005001
16.5811 -4.1949902 -6.8491201
14.1684 -4.29635 -6.3179498
14.4467 -4.2784801 -6.2797699
15.616 -4.19559 -6.1050801
15.3584 -4.2100401 -6.0384102
18.310801 -4.0541601 -9.0263596
0.57156003 7.1731501 -27.974501
0.54636598 7.2107701 -27.745199
18.5798 -3.7411201 -6.9277401
18.5795 -3.8397801 -6.73806
18.526199 -3.9368899 -6.9886098
1.0125901 7.1908398 -28.0285
18.5732 -3.7430201 -7.12743
1.43499 7.3748598 -28.131901
17.7747 -4.1988702 -10.0646
6.7340202 -5.1272998 -16.291401
-0.60340798 7.2317901 -27.063
-1.40853 7.11022 -28.0417
0.064181402 7.7823901 -19.7451
4.4596 -5.3067899 -12.7495
18.5502 -3.9970801 -9.4017496
18.482 -4.0191498 -9.4101
18.512899 -3.98086 -9.60849
18.5812 -3.96153 -9.39499
-0.53913301 7.0918899 -27.9083
-0.44997901 7.0994501 -27.862499
18.509501 -3.38801 -10.4365
18.4664 -3.1050401 -10.8615
17.937 -4.1770501 -9.6447296
-0.670578 7.0945902 -27.830299
17.9107 -4.1663198 -11.7581
18.010599 -4.1489601 -11.4843
17.7176 -4.1802602 -11.3767
17.707399 -4.2080798 -9.8168497
17.533899 -4.21908 -10.0574
18.570499 -3.9527299 -9.8181801
18.591 -3.8594201 -9.7855997
-4.6456399 7.1652899 -26.0891
0.79673302 7.7850399 -20.451
18.2381 4.4286299 -17.423
18.2239 4.1823401 -17.464899
-3.86341 7.1968198 -26.2715
18.570101 -3.9124899 -10.0203
18.501301 -3.9958601 -9.8680696
18.2306 3.9463 -17.571501
-4.1765499 7.21277 -26.0884
18.566099 -3.68642 -10.1222
-0.055298701 7.75878 -20.0373
18.252501 3.6201301 -17.7925
18.5149 -3.9572501 -11.9381
0.161808 7.7864399 -19.991199
18.3034 2.6851201 -19.6392
18.5075 -3.9912701 -10.2633
18.584801 -3.8664 -10.2625
18.5259 -3.54687 -11.6302
-4.1560702 7.2348099 -25.991899
18.287901 3.5625801 -19.873301
18.5513 -3.9369099 -12.4819
-0.74255502 7.7444201 -18.092699
17.972601 -4.1512299 -12.1808
17.4685 -4.2044902 -12.0397
-5.9716101 6.9169302 -27.4102
-5.7550998 6.9143901 -27.681999
18.458799 -2.9832301 -11.317
18.225401 3.8113999 -19.165701
17.5798 -4.2058702 -10.3374
18.4242 -3.9957199 -11.105
18.2677 3.5615001 -19.542101
18.395 -1.8095 -11.4975
18.3915 -2.2859499 -10.9275
18.452801 -2.65553 -12.1114
-4.27353 7.08077 -28.0163
-4.7721601 7.0275602 -27.9566
18.2145 3.85531 -17.932899
18.2019 3.90185 -18.229401
0.67925799 7.7867999 -20.1737
18.254999 3.57429 -19.356001
18.3888 -4.05726 -11.9025
18.480499 -4.0167198 -11.9852
-8.6288004 7.2052302 -18.5776
-8.4007301 7.2077799 -18.5091
-8.3234901 7.2441802 -18.7817
-7.6161199 7.2148499 -18.2768
-8.7509899 7.2175102 -18.8389
-8.2678804 7.2683501 -19.1117
18.462099 1.22294 -22.7792
0.99233001 7.7908902 -20.0362
1.08737 7.79421 -20.249001
-7.1719699 7.3629799 -18.6129
1.11019 7.8056698 -19.745399
-10.5841 7.08359 -19.1682
-10.4444 7.0763798 -18.8703
18.243 -4.1077299 -11.7279
-9.9011497 7.1128802 -18.790199
-8.9036303 7.0766201 -18.063299
-8.9741898 7.08777 -18.2684
-9.0979404 7.0585899 -18.006701
18.267 5.8647299 -20.4137
18.2404 5.5244198 -20.005899
-8.6296902 7.15906 -18.377701
-9.1369801 7.1311202 -18.4944
18.3918 1.8852 -21.788601
-9.9445601 7.03475 -18.4599
-9.9858599 6.9681301 -18.165199
-9.6922197 7.0011802 -18.260599
18.572599 -3.6652999 -13.5145
18.571199 -3.69309 -13.1597
18.5786 -3.90078 -13.2995
-9.3968 7.0664701 -18.3762
-9.6237497 7.1146002 -18.670601
18.5417 -3.68063 -12.5916
18.507799 -3.4102399 -12.2524
-10.8755 6.8841901 -17.943001
-9.9202805 7.0822701 -18.6143
18.3722 -4.0615301 -9.8378496
18.447001 -4.0286498 -10.0613
18.250099 3.9173601 -21.7397
18.580299 -3.9758301 -12.8633
1.4721299 7.8034301 -21.9361
-10.1946 7.0692601 -18.6999
18.317699 -4.0554399 -12.5747
18.196199 -4.1051102 -12.2759
-9.1744499 7.1676502 -18.7138
18.0564 -4.1182599 -12.5101
-12.0712 6.9300299 -19.021799
-11.5824 6.9904199 -19.459101
18.312 2.87217 -21.908199
18.1654 -4.1212001 -11.4986
-8.6797895 7.1129999 -18.135201
-11.5195 6.9189901 -18.567301
18.2876 -4.0999098 -13.3654
-12.205 6.7269101 -18.0938
-11.1039 7.04075 -19.373699
-10.2365 7.1244102 -19.394199
-11.0353 7.0236702 -20.0229
-10.7868 7.0671902 -19.625401
-11.2682 6.84975 -18.244499
18.266899 3.35603 -19.237101
-10.9036 7.0206199 -18.7169
-10.6001 7.0079298 -18.542299
18.4795 -4.0622401 -13.3005
18.584499 -3.8408 -14.9005
-10.184 6.95787 -22.208799
18.6222 -3.4305899 -14.7397
3.1705301 7.8886399 -21.4685
-6.8674598 7.2729301 -21.5935
-7.2792902 7.24999 -21.858601
-7.6834602 7.2023101 -21.617599
-8.2294903 7.1369801 -21.6598
-8.0350103 7.1688499 -21.5954
-6.68643 7.2959099 -21.782301
18.4673 1.22128 -23.2384
18.2869 -4.0998001 -14.2439
-8.5941801 7.1009998 -21.4489
-8.2975798 7.1782198 -20.7593
-7.9882698 7.1818199 -21.263599
18.6828 -2.73895 -18.1831
18.6518 -2.02879 -17.644501
-6.80827 7.28936 -22.034901
-6.12676 7.3311501 -21.8745
-6.1090999 7.3242002 -22.2418
18.690901 -2.60904 -17.5441
18.5681 -3.9537399 -13.4868
-10.0389 6.9606099 -21.7938
18.559601 -3.9942999 -14.4074
-8.5689898 7.1156101 -22.023899
18.210501 -4.1515498 -16.8813
-8.3511896 7.1048999 -22.9573
-9.1398497 7.0004601 -23.24
-8.5544701 7.1019802 -22.683901
-9.7900496 6.9913301 -22.4142
-8.9594202 7.0706701 -21.5958
-9.1231604 7.0785599 -21.0818
-9.3102798 7.03655 -21.8657
18.6033 -3.40452 -14.2629
-11.2971 6.8931599 -21.6325
-11.6755 6.8543501 -21.4193
18.444401 -4.0465298 -14.841
-11.3219 6.8558698 -22.451
-8.4739304 7.1126099 -21.7924
-8.5008097 7.1010599 -21.626301
18.0697 -4.1613102 -18.132799
18.629499 -3.6830499 -16.223301
-11.1091 6.9653902 -20.678101
-10.3802 7.0352402 -20.486099
-10.7887 6.9445901 -21.1658
-10.1057 6.9408998 -21.607901
-10.2041 6.9358101 -21.438
-9.9664402 6.96841 -21.4121
3.6091199 7.7508001 -24.757299
-10.2911 6.9242501 -21.5214
18.5212 -3.97609 -17.3962
-7.3197098 7.2410402 -22.204599
-10.8268 6.9330702 -18.361099
-11.0223 6.9449401 -18.427
-10.9263 6.88656 -18.210899
18.0744 -4.1357098 -14.9079
-10.5777 6.9060202 -18.105801
-10.7174 6.89431 -18.1304
18.1931 -4.1180201 -15.0587
18.173599 -4.15379 -18.081699
12.1835 4.6940098 1.73744
11.6908 4.2030201 1.70304
14.8116 2.73823 1.73816
14.7291 -1.3306201 1.80916
14.8676 -1.12556 1.81224
14.5222 -1.01792 1.8033299
18.5879 -3.91239 -17.646099
14.9608 -1.29432 1.8131599
-12.2537 6.91644 -19.128599
13.6634 3.5378699 1.72853
12.8571 3.9446399 1.7191499
17.833 -4.17735 -19.2742
17.804399 -4.1886501 -19.8307
15.8104 2.4279399 1.80314
15.4623 2.5009501 1.7731301
15.6926 2.1955099 1.7819099
18.400999 1.6131999 -22.0098
15.1761 2.49441 1.7547801
15.5773 2.9328799 1.77505
15.3892 3.00454 1.7575901
18.4757 -0.135102 -18.0658
-11.8479 6.7694502 -18.258801
-11.7817 6.8517599 -18.462
-2.2515099 7.6855798 -18.5089
-2.0843301 7.7129898 -18.636999
18.424299 0.177221 -19.8034
15.8159 2.9342301 1.80427
-11.5596 6.82938 -18.326599
18.523899 -4.0250902 -21.547199
18.4534 -4.04423 -21.6752
15.1171 2.9686899 1.73397
15.0453 2.7235999 1.73492
18.2558 -4.1075902 -20.528799
-3.90712 7.59132 -18.5089
-13.1295 6.6352501 -18.1077
15.1076 3.1338899 1.74663
18.129 -4.13448 -18.683399
-12.9152 6.6663799 -18.1157
15.1164 1.28945 1.7502
15.2715 1.68082 1.75169
14.9064 1.58593 1.73677
-14.0183 6.5859299 -18.2936
-13.8587 6.5692701 -18.1366
-13.7167 6.60042 -18.2617
13.8221 0.27815899 1.71127
13.8569 0.0259878 1.73111
13.9886 0.247638 1.7194099
18.4508 -4.0472999 -18.2472
18.3466 -4.0885301 -18.066299
11.5066 1.74866 1.57399
13.0895 1.9464 1.65657
18.089701 -4.1503301 -20.259199
18.320101 -4.09589 -20.2164
14.2726 2.1933999 1.70768
-14.4433 6.5206599 -17.967899
15.1346 1.99554 1.75327
-14.1079 6.5612502 -18.099199
11.4067 3.39995 1.64408
10.7308 3.14816 1.6108299
-1.19443 7.7720499 -18.5767
18.644699 -3.8141999 -21.6567
10.6457 4.4250998 1.68892
13.9621 0.50822699 1.70839
13.7023 0.50932801 1.71444
14.3371 1.2772599 1.7130899
14.3087 1.59734 1.7165
14.0362 1.20696 1.70578
-14.1951 6.5829902 -18.909599
14.4468 1.0002 1.73323
14.6043 1.56371 1.74009
-2.2869301 7.7312698 -19.3855
-2.6530001 7.7298298 -19.2843
14.7327 0.65511101 1.73454
14.5881 0.55896097 1.74763
14.8706 0.53216797 1.72545
14.0189 1.44701 1.71699
-14.8863 6.4577198 -18.892401
16.119801 1.39419 1.8042901
15.6285 1.48543 1.78215
15.6041 0.99435598 1.78662
-13.0329 6.8132 -18.9016
16.374399 0.78655601 1.81665
-13.1765 6.7779799 -18.7216
18.405701 2.4379699 -22.9834
16.226 -1.44783 1.90177
15.9681 -1.4321001 1.85568
15.9662 -1.62767 1.8724101
-14.3697 6.5416098 -18.6306
15.6628 0.50119501 1.80821
15.3976 0.81568998 1.7882
18.4142 2.48773 -23.2705
18.4466 1.78899 -23.0546
15.5346 -2.01214 1.87555
15.3772 -1.89007 1.86537
15.3554 -2.1013701 1.87151
-3.19649 7.6356101 -19.940599
-2.91205 7.5824399 -20.685801
15.8931 -0.38048801 1.82356
15.4921 0.0038703801 1.80489
15.6394 -0.484144 1.8064801
-13.264 6.6771998 -20.7801
-13.9536 6.58251 -20.571301
-13.7904 6.62607 -20.168501
16.325001 -1.10281 1.89808
-14.3228 6.5230098 -18.2724
-14.4166 6.5102901 -18.131201
16.075199 -1.21387 1.87026
18.3325 2.60993 -24.6938
18.3589 2.2909501 -24.4415
15.4858 -1.09957 1.84369
-14.2592 6.5556302 -18.448
15.8548 -1.324 1.8365
-5.5482101 7.3509998 -22.103901
14.5552 -0.117031 1.76539
14.7685 -0.103962 1.7497
14.7059 0.109897 1.73678
-15.972 6.3066802 -19.687201
-15.2776 6.4184999 -18.623301
15.215 1.01714 1.76932
-14.8243 6.4691901 -17.9849
13.1267 -4.3413301 -0.58170998
18.3088 2.8942299 -24.776699
-4.62535 7.3073802 -23.556
15.7635 -1.68709 1.87246
18.324699 2.7606399 -25.1192
15.8053 -1.49237 1.8483599
14.5373 -0.717031 1.78213
14.6121 -0.50169402 1.77025
14.4705 -0.45954499 1.79278
18.178699 3.9289401 -26.766899
14.3508 -0.24765299 1.7874399
14.2194 -0.53257102 1.79883
13.2833 -0.83020401 1.78948
13.1851 -0.62163699 1.77994
14.1591 2.6102901 1.72456
18.8009 4.1891699 -27.8167
14.2481 3.2563 1.7377501
14.265 2.9241199 1.7398
18.1276 3.60499 -27.260599
-15.173 6.4102702 -19.809799
14.2801 0.51466298 1.72916
14.4983 0.322229 1.74585
18.127199 3.4972701 -27.424601
-11.6404 6.91821 -20.625601
-12.2917 6.8153 -20.8972
13.5416 1.11727 1.69437
13.701 0.88574499 1.70596
15.6787 -1.90435 1.88289
13.7058 -0.41831899 1.73629
13.6289 -0.156202 1.7401201
13.461 -0.40580201 1.7531
-14.4269 6.5250802 -20.510599
-14.1413 6.5167799 -21.000299
13.8067 2.1235299 1.68925
14.804 -0.53385103 1.75029
14.8738 -0.84717 1.78598
14.9751 -0.64512599 1.77487
14.1161 0.385169 1.714
-1.47254 7.5283198 -23.902201
13.6524 0.226253 1.72658
18.166401 3.31391 -27.184999
13.8428 -0.99214101 1.75737
-13.5936 6.5959702 -21.075701
-13.8278 6.5218401 -21.4088
14.924 -0.26609001 1.75927
15.057 -0.376497 1.78184
15.1812 -0.190484 1.7975399
18.065599 3.7758601 -27.775801
-12.8785 6.6932402 -21.337601
-12.6744 6.8091998 -20.188499
13.8339 -0.162294 1.7334501
13.9589 -0.160143 1.75535
-12.9894 6.6552701 -21.639
-13.5164 6.5844202 -21.8764
-13.5206 6.5675402 -21.574699
13.8868 -0.34394699 1.75571
18.187599 3.94028 -27.907301
-14.5793 6.4951401 -22.0891
-13.8325 6.5744801 -22.260099
-13.9024 6.5760102 -22.6954
13.4684 0.24190301 1.7352
-13.7302 6.5288901 -21.631599
-13.9465 6.51792 -21.6957
13.267 -0.207789 1.7549
3.99718 7.7656598 -24.7589
-13.9341 6.5481 -21.993299
-14.1877 6.5141401 -21.778799
13.6471 -0.57148898 1.73552
14.2617 -0.81137198 1.79003
13.8256 -1.69938 1.8158799
13.9543 -1.5538599 1.80714
-14.6353 6.5053 -22.783001
1.35523 7.5350099 -26.0478
-6.6695199 6.9285202 -28.067801
12.9975 -0.85006303 1.7978899
13.158 -1.16807 1.81433
1.10866 7.5170002 -25.937799
18.669201 3.4893401 -27.9095
18.8486 3.56567 -27.907499
14.4284 -1.28491 1.81754
-7.2056999 6.8804798 -28.002199
-6.97053 6.9197798 -28.063999
-7.28866 6.9848599 -28.140699
-6.9271002 7.0336099 -28.1835
18.3092 2.8989201 -25.5427
11.4094 -3.3405399 1.82113
10.6208 -2.19995 1.67981
10.9315 -3.30281 1.7966
15.9346 -2.69824 1.96241
16.2237 -2.8092799 1.97193
16.145201 -2.5179901 1.93769
13.5065 -3.12778 1.9171799
13.3667 -2.82986 1.89891
13.259 -2.9851201 1.89452
10.8289 -4.4966002 -1.76306
16.023199 -4.1406598 -3.2493801
-6.7659202 7.2184801 -28.4007
4.26232 4.4825001 1.64861
4.95998 4.0820498 1.63537
-7.1353502 7.0985398 -28.251499
7.2309799 5.02073 1.6795599
7.37006 5.3942699 1.73265
7.0327702 5.2318101 1.7006
2.9082699 7.7058802 -24.8752
-6.9773002 7.1401801 -28.283501
-7.1326199 7.1880002 -28.392599
-6.8580198 6.8568501 -27.8347
4.2560401 3.0340099 1.61579
5.5617299 5.6584702 1.7436
-7.6507101 6.7941699 -27.6789
-7.0989799 6.8366098 -27.503799
-7.2860198 6.8395801 -27.808399
-9.5593901 6.48141 -27.306
-9.5769596 6.4653502 -27.1166
-9.1988297 6.5473399 -27.320101
-0.0107259 7.4583101 -25.5137
0.32476601 7.4920201 -25.458599
-7.3239698 6.7810898 -27.037701
2.4658401 7.5517502 -25.9095
4.9910998 1.7095799 1.61573
18.798401 1.3270299 -27.9445
6.5528202 4.9938998 1.6974601
-8.7881298 6.6345801 -27.400499
1.3561701 7.5239201 -25.8608
18.739 1.67855 -27.9433
-7.4881902 6.8539701 -27.9562
-7.1048102 6.8617001 -27.943899
-8.37325 6.7372298 -27.627199
5.95643 2.35691 1.48386
6.2881799 2.4406099 1.45884
6.0100899 2.7392399 1.5060101
4.87603 3.57742 1.6162601
4.3887601 3.8208101 1.6294
4.2844801 3.2739699 1.62582
-7.7576799 6.7872 -27.888599
5.3108802 4.3470802 1.65982
5.6886001 5.2457299 1.70479
5.9103899 5.0264902 1.68469
5.5285702 3.8075199 1.62532
-8.2704601 6.9520702 -28.2591
5.4716201 1.45665 1.59263
5.3261199 1.5973001 1.6099
3.15957 7.3698502 -27.9217
1.87989 7.46101 1.67734
-7.9154501 7.0460601 -28.3361
2.7446001 7.4198298 -27.340599
2.3037701 7.3736901 -27.621099
-7.6511798 7.0152798 -28.228201
-7.5342102 6.9396 -28.1122
-7.6645002 7.07514 -28.3032
18.5156 -0.66832697 -22.203501
6.5329299 2.6394501 1.4622999
6.7561898 2.15172 1.42401
6.8501701 2.9128001 1.4885499
-7.9952002 6.7720499 -27.837
18.5525 -1.40319 -21.3211
18.551701 -1.51112 -22.055599
5.5968099 3.0502501 1.55182
18.5627 -1.25656 -23.9979
18.4977 0.0461656 -23.2983
-8.6630001 7.0076499 -28.4088
-8.7479496 6.9149599 -28.2579
8.0508804 3.4186101 1.54776
6.6378798 3.24455 1.5276999
-8.8601198 6.8276 -28.1343
-8.7491999 6.7525301 -27.945499
-8.5862703 6.8427801 -28.1362
3.23821 7.4065499 -27.716299
-8.4848604 6.7772799 -28.0214
18.635799 -3.9177599 -21.760599
14.1479 -1.25897 1.8065701
14.305 -1.79223 1.8401099
14.3206 -1.51803 1.82108
18.6695 -2.5943699 -24.7094
-8.2218304 7.0573602 -28.421
14.5009 -1.69644 1.81619
1.8999 7.4366999 -26.8524
16.5492 -4.2961102 -21.5453
-9.7719603 6.4667301 -27.2791
-10.0028 6.4896102 -27.4193
-11.1919 6.5780602 -28.107401
-11.3868 6.5378599 -28.000799
4.6395602 2.5589199 1.5817699
-7.1283002 7.3362098 -28.658501
-7.7499099 7.1770902 -28.518
0.59152502 7.5152202 -26.031
17.7365 -4.1672902 -22.7307
-9.9113998 6.8945599 -28.4825
-10.2501 6.76788 -28.3267
-9.9660997 6.7357998 -28.236601
18.393 -4.1052799 -26.01
-9.7537603 6.5720901 -27.6
-9.7871904 6.4963698 -27.4363
-9.5587702 6.53058 -27.475401
3.3179801 2.32726 1.52785
4.6963902 1.8745 1.54721
-9.7737999 6.6716599 -27.9911
-9.4640102 6.7336102 -28.0555
5.0931101 1.9998699 1.59642
4.8852401 2.35021 1.5895
0.69545698 7.5156298 -25.448
-10.2062 6.6686802 -28.1534
18.715401 -3.8183 -24.277901
-11.2908 6.5033998 -27.7446
18.689199 -3.28543 -17.7279
-9.80159 6.6950698 -28.1189
-10.0155 6.6440401 -28.035101
0.83122301 7.5122399 -26.0487
17.662701 -4.1638799 -24.858101
-10.603 6.6392999 -28.1301
4.2648702 1.18414 1.37666
4.2764201 1.41671 1.37512
18.634001 -3.61713 -21.7666
-10.6216 6.7071099 -28.280899
18.622801 -3.94858 -23.4781
18.6213 -3.98348 -23.353701
1.5971299 7.5385499 -26.178499
-11.1832 6.6545 -28.2792
-11.3153 6.7136998 -28.381201
-11.4489 6.6027002 -28.2185
5.1721902 0.35567501 1.57682
5.3976698 0.25916499 1.50133
18.451 -0.046101298 -27.549601
-11.5713 6.6719298 -28.3433
0.87335598 7.4921098 -25.831699
4.3880601 0.372556 1.55118
4.5889101 0.365841 1.59454
4.4330401 0.52613801 1.52586
-10.945 6.79529 -28.4706
4.5395002 0.654751 1.5396
18.5476 -4.2182598 -27.959101
0.66073501 7.4976101 -26.2243
4.3075199 0.73960501 1.47313
-9.1378899 6.84832 -28.2185
-9.2213402 6.9696598 -28.476299
-10.8546 6.5288501 -27.6675
-10.2259 6.6089902 -27.825399
-10.392 6.5488601 -27.659201
0.82976598 7.4903698 -25.655399
-9.47227 6.46766 -26.7981
-1.56506 7.4834199 -28.2864
-0.833278 7.6220899 -28.3755
-9.0053101 6.7435899 -27.9706
-8.9618502 6.7180099 -27.8211
-9.6356697 6.4430299 -26.8825
4.4365101 1.02468 1.46017
-9.8535099 6.4756098 -27.382299
16.1565 -3.2452199 2.0031099
16.235399 -4.2800398 0.52656198
15.5515 -4.3865299 1.15098
16.316601 -4.1721902 -0.53515702
18.4506 0.19277801 -27.579599
-10.1877 6.62359 -27.9729
-10.0094 6.6335502 -27.886101
15.4171 -4.17942 -0.88227999
15.4609 -4.15695 -0.69563901
15.0879 -4.21175 -0.68358803
-10.0556 6.58497 -27.6754
15.3718 -4.1828098 -0.50528699
14.2369 -3.3505001 1.96931
14.2747 -3.84586 1.96629
14.4089 -3.5138199 1.96749
14.5269 -4.27351 -0.67245603
14.0077 -4.2988 -0.50130802
13.8644 -4.2971001 -0.75499898
-1.78117 7.3448801 -26.041401
-11.0647 6.5308099 -27.7279
18.6467 -3.9038899 -26.2188
18.627399 -3.95263 -26.432699
12.1239 -2.7127399 1.8431799
12.4068 -2.9044199 1.87458
12.3901 -2.66028 1.87767
15.1178 -1.6736799 1.83915
15.1277 -1.95259 1.86285
18.604 -3.96437 -26.660601
-11.3022 6.3403702 -27.132
-10.9726 6.3515601 -26.8773
17.4133 -4.2013898 -27.2509
17.1703 -4.2198501 -26.9484
15.2821 -1.79134 1.86317
18.708401 -3.6888599 -25.418301
14.5701 -4.2042499 -1.96275
1.003 7.4979601 -25.718901
18.678699 -3.95017 -25.216801
-13.5007 6.5550098 -24.1234
13.46 -4.3240199 -1.12282
13.8662 -4.3172302 -1.19168
13.9234 -4.3051901 -0.98724598
12.3994 -4.39256 1.95438
12.2248 -4.5240798 1.8666101
12.5163 -4.53615 1.80836
0.79331303 7.21771 -27.7658
-16.7493 6.2116199 -26.3008
12.3095 -4.5942302 1.76325
18.1943 -4.1915998 -26.6161
18.2153 -4.1563501 -26.3687
-12.8987 6.32581 -27.3274
-16.7113 6.2481899 -24.5476
14.2968 -3.1371601 1.95376
18.1042 -4.4555802 -28.1078
18.1283 -4.4826398 -28.146601
-16.7822 6.22504 -24.0641
14.9394 -4.25881 -1.06794
18.990499 -2.12606 -27.915001
-14.6424 6.2268 -26.882601
12.6899 -2.6503799 1.89452
12.8424 -2.7065799 1.88484
12.9112 -2.3564601 1.90001
18.705999 -3.1661799 -25.1215
18.472401 -0.66809201 -27.798599
13.3482 -4.4523602 1.87219
13.3207 -4.2781901 1.9292901
13.0564 -4.4458699 1.87614
-16.551001 6.2659001 -25.3403
13.1337 -4.2333598 1.94324
13.2812 -4.0292902 1.93528
16.3724 -4.2841702 -27.8228
-3.0439601 7.2968898 -25.728901
14.8026 -4.2560201 -0.47147501
14.7536 -4.26087 -0.69422501
-13.4654 6.4147401 -28.024
-13.6559 6.4286599 -28.0944
-13.5102 6.3635502 -27.866301
18.704 -2.97469 -26.8913
18.7458 -3.27686 -27.1453
15.0799 -4.2367301 -0.91520602
-11.3771 6.3576999 -27.3619
13.7778 -4.1493802 1.93568
13.4654 -3.93716 1.92795
13.4637 -4.0945802 1.92682
-11.9701 6.3189998 -27.2089
-11.902 6.31178 -26.793699
-11.4413 6.3275499 -26.893999
17.002399 -4.2255602 -27.688101
10.8675 -4.4879999 -1.25128
-11.623 6.54462 -28.111
17.1387 -4.2080498 -27.6738
-12.1977 6.4110599 -27.687799
-12.39 6.40277 -27.7561
-12.5474 6.3838601 -27.735399
14.7787 -4.4101901 -13.9794
13.319 -4.3227801 -0.85052598
-13.3906 6.3185201 -27.337299
-13.5937 6.3004298 -27.166599
9.2602797 -4.63868 -2.98932
9.6249399 -4.6003399 -3.0975599
-11.6274 6.5117602 -27.993401
-11.641 6.4860301 -27.812401
11.6677 -4.41922 -0.74115801
11.1762 -4.4700298 -0.81380302
16.173599 -4.1255498 -2.07231
-12.4209 6.5831499 -28.2083
16.3918 -4.13873 -0.95629001
-13.7004 6.5647001 -28.3263
-14.0942 6.5409298 -28.3461
-13.9941 6.4369001 -28.1833
-13.4098 6.5205898 -28.198099
-12.6462 6.3440599 -27.5119
-12.6017 6.3052201 -27.0679
-12.5687 6.3100801 -26.840099
15.1765 -4.2455902 -0.218522
15.1098 -4.2125802 -0.48107001
12.1267 -4.3920002 -3.36605
11.9464 -4.42169 -3.2669201
11.7882 -4.4301 -3.38275
15.0802 -4.3864899 -18.3934
-11.5798 6.44031 -27.6441
-11.6156 6.3796802 -27.479799
14.8345 -4.1996799 -2.1787
-16.223 6.04846 -28.0161
-16.320299 6.15802 -28.145901
-16.5387 6.0560498 -28.0208
-16.1033 6.1682801 -28.173201
-16.0875 6.3306198 -28.292101
16.254999 -4.2016702 -6.2693901
14.5249 -4.4671798 -20.921
14.1853 -4.5138302 -20.787399
15.688 -4.16539 -0.52947402
15.9639 -4.2178402 -0.13352001
15.6062 -4.2172298 -0.23138601
15.0574 -4.20224 -2.8958001
14.7465 -4.3982201 -18.3986
-16.5355 6.0244999 -27.7889
14.8223 -4.1942701 -3.39833
15.1565 -4.3964601 -17.9993
14.7722 -4.1948299 -3.66799
14.375 -4.4546599 -18.972799
13.2425 -4.2976799 -3.80023
14.4327 -4.2036099 -2.0948999
-5.4966602 6.9773598 -26.6985
-17.361099 5.9858699 -19.763901
-4.1038599 7.1012602 -26.7304
-17.392099 5.9542298 -19.495701
-17.2614 6.0510702 -19.7988
-17.216499 6.0757799 -19.807199
-6.01085 6.9136 -26.953199
-3.6144099 7.0409298 -27.861401
-3.7895601 7.0731001 -27.9764
-17.1982 6.0302801 -20.332001
11.9331 -4.70576 -17.5044
15.3306 -4.1658902 -3.5799401
12.692 -4.3459001 -4.0458899
12.2546 -4.37433 -3.5569
12.0401 -4.4030199 -3.97967
-17.299601 6.0399299 -20.0042
-17.2862 6.0478101 -19.954
-4.8573699 7.4029002 -28.3722
10.605 -4.81252 -16.6672
18.580799 -3.84513 -6.6093302
11.0074 -4.7522898 -17.1467
15.2699 -4.1813302 -4.72335
15.5982 -4.1691799 -4.73911
15.8059 -4.1650901 -4.2639699
-17.3843 5.9201698 -20.132799
-17.368601 5.9197302 -20.3295
15.1929 -4.1742201 -4.0991502
-8.4625797 7.1426501 -18.221399
-8.3186598 7.26509 -19.5462
-8.2251101 7.2404099 -20.1147
-17.5895 5.5141001 -20.2097
-17.5641 5.6349001 -19.997601
15.4022 -4.1672602 -3.8527901
-7.52246 7.2415199 -18.361601
-9.1073198 7.1304898 -20.4986
15.5426 -4.2038498 -5.85184
-17.357901 5.9482498 -21.6029
9.5229101 -4.8841801 -17.1849
-11.6851 6.9562402 -20.1518
-17.327 5.9759002 -21.914801
-17.447901 5.83496 -22.113899
15.9607 -4.1807399 -5.72123
-9.4680004 6.6055799 -27.6313
-17.533501 5.7406802 -22.320601
-17.4256 5.8944302 -22.3748
15.2984 -4.1848698 -4.9942498
14.9979 -4.2104001 -5.0133801
10.8301 -4.8379798 -17.862301
14.7502 -4.23276 -4.9414401
14.9551 -4.2047701 -4.4569001
-12.0217 6.7395401 -18.2045
-11.9428 6.7428999 -18.058201
14.5068 -4.23353 -4.51439
-17.5417 5.70678 -22.1535
13.5 -4.51754 -20.448299
-12.3049 6.7340899 -18.2656
-17.6052 5.2944398 -21.7764
-12.5085 6.8835802 -19.256399
-17.607201 5.5544 -22.159901
-17.3906 5.9522099 -22.6777
13.0984 -4.3034401 -2.07919
13.3588 -4.26794 -2.4479301
-17.5357 5.7807698 -22.5415
-13.3816 6.7169199 -19.6647
-17.319201 6.01682 -22.7068
-17.2857 6.0285301 -22.7878
13.077 -4.2875099 -2.6682501
13.4901 -4.2627201 -2.7027299
-17.272301 6.0420799 -22.650801
-17.503401 5.8168101 -22.7551
12.4197 -4.36167 -2.1210599
-17.592199 5.69385 -22.706499
11.3791 -4.47153 -3.57655
11.5568 -4.4537501 -3.8894801
18.454201 -0.226117 -20.0277
18.496201 -0.55724698 -20.495001
18.4688 -0.101337 -20.5173
12.0917 -4.3936901 -1.78655
11.7741 -4.4177098 -1.78079
12.0559 -4.38451 -2.1122999
-17.2922 6.0677299 -24.015699
-17.143499 6.1409702 -23.9324
-17.3283 6.0236001 -23.8067
-17.1936 6.1223798 -23.7244
12.3878 -4.3826098 -1.78942
-17.3526 6.0268798 -23.657101
10.9792 -4.5037699 -3.45157
10.8073 -4.5216198 -3.9999399
11.1262 -4.4973898 -3.8515999
-17.3825 5.9614902 -23.742901
-17.444401 0.590307 -20.0956
-17.3354 -0.663737 -19.5264
12.7373 -4.3686099 -1.60261
12.7943 -4.3322401 -2.02089
-12.3695 6.73734 -22.553499
-13.0077 6.66399 -22.317499
-17.2437 -1.88694 -20.6908
10.6209 -4.5162902 -2.1921999
11.8642 -4.4142098 -3.07655
11.6031 -4.4270601 -3.1168201
-17.2344 -1.73636 -21.208799
11.4322 -4.4406099 -2.9167099
10.5968 -4.5407801 -3.6908901
-17.402599 0.72935897 -21.7876
-17.4037 0.57899702 -21.4851
12.4831 -4.59232 -20.4582
12.2974 -4.6296902 -20.507601
10.8156 -4.5018301 -2.95187
10.3364 -4.5319901 -3.18082
-17.367901 0.37948599 -21.9636
16.811899 -4.1377602 -1.96043
-5.5275002 7.2084298 -24.003401
-6.9287701 7.0493302 -24.4419
-6.8257499 7.2011099 -23.259501
16.081699 -4.1524401 -1.6484801
16.350599 -4.1405101 -1.4932801
-17.408899 0.98704797 -22
16.061001 -4.1500401 -1.40201
-17.250401 -1.3658 -22.441
10.9839 -4.4838901 -2.2485001
12.3937 -4.60217 -21.305901
-7.5399799 6.7785602 -27.353001
-17.170099 -2.0507801 -23.5473
10.767 -4.4876499 -2.40909
10.5886 -4.7865901 -20.5002
10.6264 -4.7516899 -20.1576
11.137 -4.4779301 -2.8826399
-17.176201 -1.81194 -23.665199
11.9935 -4.6874099 -20.653799
11.2009 -4.4778299 -2.39821
-9.2231503 6.6089101 -27.5362
11.6515 -4.4570699 -4.5686302
12.5706 -4.3792901 -4.69946
-17.530001 5.7716999 -25.3792
8.4932203 -4.6943798 -3.26594
11.5513 -4.44168 -3.3136599
-17.544399 5.7470002 -25.7913
10.2606 -4.4539499 1.89836
11.7984 -4.6623802 -20.456699
-17.463301 5.8044701 -25.0079
-17.3505 5.9388599 -25.027901
10.5569 -4.7737699 -21.3605
-10.7801 6.3727999 -27.0415
-17.5179 4.5894198 -26.6089
10.4081 -4.5104299 -2.8946099
-12.337 6.4608202 -27.9254
-12.4485 6.47651 -28.031799
-12.5507 6.4162002 -27.9062
11.0517 -4.7056699 -21.214399
-17.038601 5.9988098 -27.5688
-11.8493 6.78439 -28.5376
13.5722 -4.2947602 -4.4155002
-9.8327599 6.44629 -26.444099
-9.0589104 6.5520701 -26.5443
13.3331 -4.3236399 -4.8751001
-12.3009 6.4944401 -24.9363
9.8310099 -4.9130998 -17.5648
12.3326 -4.3526602 -3.1859801
12.4016 -4.3343 -3.02088
-9.8531504 6.4267602 -26.6329
9.6959295 -4.8826799 -15.9726
-10.5851 6.4972901 -27.557301
8.5222197 -5.02315 -17.882799
9.9389496 -4.5844402 -3.9437599
9.5782204 -4.63586 -3.88694
9.6965799 -4.6126399 -4.2415299
-9.7140102 6.7677102 -28.2286
-17.3197 1.81747 -26.941401
-12.9874 6.6932402 -28.444
10.1987 -4.5422101 -3.20665
-17.310101 1.7746201 -27.441401
-10.2061 6.5204401 -27.5488
-15.3126 6.43331 -28.351
-15.6843 6.3845701 -28.3151
10.6203 -4.5943499 -5.7989998
-17.2069 -1.25604 -24.5214
-17.2199 -1.0565799 -24.2684
12.0838 -0.30421701 1.6743
11.6041 -1.13306 1.6795501
12.33 -1.52996 1.79237
9.6159897 -4.90416 -17.4569
7.89468 -4.7429399 -2.6675799
8.1126604 -4.7259698 -2.58337
-17.146299 -2.1921501 -24.455099
4.0406299 -4.64147 1.89024
-17.150499 -1.95056 -24.844601
8.6614704 -4.8268199 1.66608
8.5139704 -4.8357701 1.52393
-17.168301 -1.42952 -25.0453
8.2862501 -4.8417401 1.6935199
-17.2174 0.106314 -28.135401
8.7596302 -4.4166298 1.84914
8.4976397 -4.3018799 1.8334301
-13.4388 6.5921302 -23.574499
8.6343098 -4.6969299 -0.37357101
8.2116299 -4.7304001 -0.62251103
-12.3436 6.3418999 -27.476299
-12.1637 6.3133302 -27.311899
-11.9672 6.3526902 -27.412001
-17.176701 0.067372903 -27.571199
8.8835201 -4.6710501 -0.670515
-13.2203 6.49476 -28.1395
-13.344 6.41222 -28.0091
-13.1895 6.4218798 -28.000299
10.0195 -4.5755501 -2.28983
8.9560404 -4.9507098 -17.5518
-13.1036 6.6007199 -28.2896
-17.3297 -0.025311301 -28.2059
7.0643501 -4.8104401 -0.94099802
6.3797202 -4.8487701 -1.3994499
5.31037 -4.9305601 -1.42638
6.3326998 -4.8459601 -2.1061499
-11.8637 6.5244598 -28.027201
-17.094101 -0.61676699 -27.768801
-17.111 -0.47429699 -27.503099
-17.135799 -0.245786 -27.4806
2.51612 -5.3638802 1.68718
2.7261 -5.3323798 1.63165
7.0102301 -4.8309999 -0.55860198
-17.100599 -0.87541097 -27.2321
-13.7558 6.3544798 -27.9519
-13.964 6.3590899 -28.0319
5.56987 -4.6775999 1.84771
5.1599302 -4.5760598 1.84145
5.27882 -4.7944002 1.84901
-17.071199 -0.817307 -27.973301
-12.9626 6.8092399 -28.686701
5.4341698 -5.0644798 1.3225
4.7690701 -5.1164999 1.12141
5.1629801 -5.0857301 0.97384399
5.3396602 -4.97646 -0.14628001
-17.108 -0.41421899 -27.853001
3.41468 -5.23841 1.3133
3.47051 -5.2298102 1.5890599
-12.8232 6.4140401 -27.957399
3.3585801 -4.25948 1.85181
-17.094601 -0.88788003 -27.5354
-17.070999 -0.99169898 -27.74
4.3780999 -5.0201001 -1.45302
4.9594498 -4.9603 -0.91431803
5.8734398 -4.71802 1.85179
-16.48 6.28688 -24.7558
-17.3764 0.73741901 -22.123699
5.7151699 -4.8042598 1.83605
-17.620899 5.4326301 -22.342699
8.9278698 -4.6715999 -2.8176
10.1708 -4.5307798 -3.0327201
8.5380001 -4.96211 -17.3605
-16.162001 6.3089399 -25.1896
-16.021799 6.3442502 -24.328501
-15.6184 6.2975798 -25.822701
7.52601 -4.7828302 -2.7465999
7.7722001 -4.77248 -3.0650101
-12.1086 6.48455 -27.9112
-17.3505 -0.122512 -21.669901
-17.3249 -0.206525 -22.074699
-17.3153 -0.435431 -21.7561
8.33708 -4.704 -2.3071201
8.7215004 -4.6859698 -2.62343
-17.263201 -0.471984 -23.9762
-15.7976 6.0548601 -27.8953
-15.5124 6.0767398 -27.887501
-14.5157 6.2237301 -28.011
-14.3382 6.24822 -27.9664
-14.2832 6.32901 -28.077999
-17.537001 5.00983 -27.1035
7.1155 -4.7940202 -2.27282
5.8114901 -4.9275699 -3.3375299
5.9117899 -4.9057498 -2.9484799
4.28268 -5.0624499 -3.58441
-17.5979 5.64501 -16.5979
-17.5945 5.5686302 -16.480499
-17.2934 0.0407709 -24.339899
7.18153 -4.7995801 -3.68575
10.1047 -4.5496898 1.8764
10.0651 -4.34481 1.88313
8.22328 -4.7556901 -4.3259602
8.8547201 -4.7056599 -4.1223402
8.3144102 -4.7431502 -4.0321298
7.5643902 -4.8143401 -4.60323
8.2260199 -4.7509198 -4.7231002
7.8515801 -4.7985201 -4.4191298
6.5613298 -4.8995099 -5.25316
5.9888301 -4.9446702 -5.24997
6.42278 -4.84759 -2.7130799
6.1846499 -4.8994498 -3.2367201
4.7500701 -5.0131001 -3.043
-17.545401 4.5363402 -27.936399
-16.5751 6.2128201 -19.6453
7.82478 -4.80338 -4.2053399
-16.685101 6.1883202 -20.112
7.2175298 -4.8470402 -4.9239202
7.3322902 -4.8264599 -4.4784999
-17.474701 4.71457 -27.348
-17.007999 6.16259 -23.642099
-17.4314 4.4847498 -27.5926
-17.420799 4.3835301 -27.669701
-17.027 6.1817999 -24.2397
-17.403 5.9490199 -23.5774
-16.476801 6.2129402 -20.5501
-17.7764 4.59167 -28.062
14.3505 -4.26721 -5.3179998
15.4767 -4.2322402 -7.1630702
-17.1654 6.1219201 -26.855301
-17.178301 6.1365099 -26.6387
14.6715 -4.2846699 -7.2204199
14.4768 -4.2974 -7.0643101
18.274799 -4.08286 -8.3564596
18.385599 -4.0139799 -8.6088696
-17.580099 5.4103398 -23.989401
15.0913 -4.3501301 -12.1839
-17.932699 3.8285201 -28.2474
16.278999 -4.24404 -8.4161501
16.8197 -4.25844 -10.6286
-17.5893 5.2158599 -23.934099
-17.418699 3.6794 -27.9562
-17.1646 -1.3433501 -25.656799
-17.174601 -1.27328 -25.377899
-17.085199 -1.5218199 -27.52
-17.1457 -0.89360303 -26.651199
-17.5065 5.8162098 -26.171499
-17.114401 -1.0542001 -26.8785
-16.2939 6.24435 -21.426901
-17.3102 6.0806999 -26.6989
-17.2612 1.17489 -26.2411
-17.3255 2.1096001 -27.9531
-17.5693 5.6525502 -21.750099
-17.286699 6.1040301 -26.732599
-17.4042 2.07744 -28.15
-17.3409 2.48031 -27.9014
-17.093201 -1.3907501 -27.231199
-17.613199 5.5259099 -21.2561
-17.217899 0.60651302 -26.9652
-17.0707 -1.28211 -27.643999
-17.2572 -0.61517698 -24.259501
-17.415701 2.5803299 -28.069599
-17.554899 5.3520198 -26.4779
-17.6007 5.60147 -21.764
-17.5529 5.1530099 -26.854
-17.2435 0.88520998 -27.674299
-17.2227 0.70626998 -27.9011
-17.183399 -0.93489701 -25.4352
-17.3559 1.26104 -28.1779
-16.962999 6.0372901 -27.4153
-15.8962 6.0861602 -27.533199
-16.241301 6.0460701 -27.7379
-17.582701 5.71279 -22.4547
-17.446699 1.11615 -20.4751
-17.4452 1.05726 -20.9785
-17.2714 0.83539301 -28.171301
-16.368601 6.2706099 -23.0672
-17.4681 1.39897 -20.009001
-17.4275 5.9656301 -27.1096
-17.546499 4.88449 -26.7215
-17.446699 0.88393998 -20.141199
-17.1502 -0.79812098 -28.135799
-17.425699 0.310994 -20.23
-17.433701 0.70462698 -20.4405
-16.0355 6.0317798 -27.8906
-17.4953 5.8523598 -26.620001
-17.236799 -0.50056899 -28.1747
4.1601601 -5.1756201 1.38903
-17.5266 5.7796001 -27.0243
-17.5711 5.5121198 -27.889799
-17.6931 5.2786598 -27.962299
-17.4266 1.16901 -22.167299
-17.652399 5.2093902 -27.925699
5.6992402 -4.97821 1.76298
5.60393 -5.0402198 1.65538
5.8084302 -5.0331702 1.60112
2.4795201 -5.2455902 1.81757
2.5657599 -5.30686 1.75595
2.3763001 -5.2345901 1.84347
2.4753399 -5.1482301 1.8672
-4.5334601 -5.6914101 1.57177
-6.1538501 6.5211 1.76695
14.6304 -0.29390901 1.76682
-4.8573999 -5.6928101 1.56845
-6.15871 6.95859 1.5863
2.84865 -5.2634001 1.74414
-5.4265399 7.0504599 1.51545
-14.5286 -6.5398598 1.38612
15.1856 0.26072401 1.78829
15.0798 0.50869298 1.76387
14.9266 0.278557 1.7335401
-15.3102 -6.54142 1.25281
-14.9878 -6.5437498 1.41886
-3.8828499 6.63762 1.77432
14.9162 -1.5154999 1.8034
-14.3183 -6.5581002 1.46547
-3.7038701 6.6113501 1.76412
14.5125 -1.48378 1.8078901
14.7091 -1.5684 1.7966599
3.2629299 -5.2476702 1.63955
15.1841 0.046931598 1.80446
-14.8977 -6.5230398 1.2888401
3.3115201 -5.22124 1.69906
-5.8041101 7.0547099 1.35174
15.3394 -0.46966901 1.80667
1.48836 -5.2593198 1.79116
15.4807 -0.75844699 1.81677
-17.2514 -5.3243098 1.5311199
-17.2078 -5.5391002 1.42799
2.59342 -4.5418 1.8739901
15.3153 -0.922019 1.8353
15.3313 -1.29976 1.8611799
15.1405 -1.09263 1.83104
15.1468 -1.4055099 1.83152
-17.1966 -5.75418 1.50911
-17.1821 -5.72333 1.65281
1.01445 -5.4163499 1.41765
-5.3746901 5.8917198 1.6484801
-5.6018701 5.7701302 1.64715
2.1369801 -5.2190399 1.85414
-16.982599 -6.31429 1.15247
2.09624 -5.3687801 1.49518
-4.7026601 6.4146399 1.74815
-4.9499998 6.45649 1.75458
-17.0077 -6.3955898 0.63841099
-16.9119 -6.4967599 0.54527301
1.88976 -5.3801799 1.42106
-16.4557 -6.58041 0.726215
-16.6259 -6.5703802 0.48369199
-16.478701 -6.5753002 0.36390701
1.72727 -5.2035098 1.8297
1.59337 -5.3854699 1.74137
-16.702101 -6.5710101 1.1013499
-16.838499 -6.5009599 1.1535701
-16.7715 -6.5436001 0.96082902
15.165 -0.741135 1.81423
1.99457 -5.2610698 1.82647
-5.0064201 6.63516 1.76596
-16.7083 -6.5845499 1.22259
15.2167 -2.92029 1.95891
15.5552 -2.8253701 1.96321
0.75273901 -5.4149098 1.29274
14.2423 -2.5369799 1.90978
14.2162 -2.88079 1.93741
14.4931 -2.6057701 1.93845
1.9556299 -5.4090199 1.63898
1.97545 -5.3699999 1.76838
1.80107 -5.38308 1.75034
-17.002399 -6.42624 0.75367898
16.3706 -3.8713701 2.0111699
16.5135 -3.9382999 1.99619
-16.5914 -6.5799499 0.99036998
-16.634899 -6.5677099 0.78609198
13.6105 -3.33252 1.94336
0.56273299 -5.3406401 -1.3809299
-0.336198 -5.4036102 -0.50631601
-17.027901 -6.3615499 0.794774
13.824 -0.569323 1.74622
-16.956699 -6.4616399 -0.423531
-16.9848 -6.3902998 -0.237295
15.3992 -1.56196 1.8742599
0.032204401 -5.43297 1.69707
-5.22926 7.00071 1.6461
-0.278597 -5.4365301 1.66143
-17.035 -6.27705 0.66812301
12.9759 0.84691697 1.68204
-2.5100999 7.2932501 -0.18086199
14.1389 1.98886 1.70647
0.88480997 -5.2990599 1.7683001
15.4521 0.45337099 1.80053
15.2995 0.54590499 1.79556
-16.790701 -6.5434399 0.56704599
-2.40941 7.3798199 -0.82340902
13.7671 0.83009797 1.71303
-17.040001 -6.2133002 0.51060498
-17.064199 -6.0324302 0.77042502
0.20072301 -5.48527 1.6142
13.2849 0.43191701 1.7239799
14.1378 0.88800102 1.70982
0.213735 -5.4531102 1.73981
14.1119 -0.155495 1.77659
14.2959 0.31461099 1.74184
-0.036885001 -5.4588499 1.41567
-16.9321 -6.51718 -0.16807
-16.863199 -6.57445 -0.067630701
-16.934601 -6.5004902 0.039234299
18.5536 -2.6224501 1.42304
-0.87008399 -5.3378601 1.78136
-0.81556201 -5.4628301 1.69382
13.9986 -0.75514799 1.77604
-0.98918998 -5.50769 1.49512
18.378401 0.239924 -6.24439
18.363701 0.48110601 -6.3506298
18.347401 0.64620602 -6.1746101
14.4319 0.026400199 1.76122
18.381001 0.0601722 -6.3875198
-0.90807599 -5.1273799 1.81429
-1.4032 -5.5030499 1.72708
-5.2205801 7.20333 -1.51009
-5.0778799 7.2199702 -1.9039201
18.2939 -4.0457101 -6.7347698
18.302601 -4.0387998 -6.4219899
-1.447 -5.5314798 1.58446
18.583599 -3.6003599 -6.7783499
-0.57769501 -5.1760001 1.84121
14.0217 -0.47922501 1.7886699
-0.72145897 -5.2287402 1.81406
17.6264 -4.14744 -6.37886
18.062799 -4.0971198 -6.6086502
18.0014 -4.1055498 -6.4473
-5.4629302 6.5764599 1.7561899
18.1446 -4.0749998 -7.0984201
-1.64037 -5.4518299 1.79377
-1.7126 -5.28618 1.8045
18.333401 -4.03826 -6.99333
-5.22123 6.5322399 1.74941
16.448799 -2.50896 1.95116
-1.56806 -5.51092 1.72905
18.426201 -4.01016 -6.8740401
-3.63395 -5.4296799 1.87296
-3.22667 -5.46946 1.8626
17.7729 -4.1312099 -6.8743701
17.353001 -4.1649499 -6.9960899
-6.29603 6.9474201 1.57376
6.1574202 5.5371199 1.74137
-1.69626 -5.5686498 1.61182
12.4437 -2.0007701 1.85593
-0.486954 -5.4668598 1.65441
18.588301 -3.7667601 -7.8489499
-0.32994199 -5.4665298 1.44909
-0.448396 -5.4748602 1.54773
13.236 -1.75653 1.87763
13.4178 -1.94036 1.87607
-0.72816199 -5.4877601 1.31916
-1.38414 -5.5293298 1.31993
-6.0027699 6.6834502 1.73279
6.2875099 4.76478 1.68758
-1.2521501 -5.5210299 1.46147
18.511 -3.2069099 -8.51931
18.5555 -3.2088399 -7.4728599
18.5811 -3.7200999 -7.4781199
18.5791 -3.83413 -7.5699601
18.5802 -3.81125 -7.5511599
18.5404 -3.90748 -7.4868798
-2.8122001 -5.56986 1.75618
-2.6533 -5.6008701 1.71561
-2.6410899 -5.5489502 1.79836
-2.52087 -5.4553499 1.82648
-2.42872 -5.6082401 1.70138
18.4599 -3.9925101 -7.5767498
18.3116 -4.0446901 -7.5275202
4.2518001 2.2335899 1.5369101
5.2287402 1.7819999 1.60013
-2.18132 -4.6276102 1.7816499
-7.1384301 6.1396899 1.72559
5.3326702 1.98286 1.57163
-2.7419801 -4.9686599 1.84525
-2.5151401 -5.1965299 1.8345701
18.478201 -4.0050101 -7.93016
18.3407 -4.06879 -7.9239502
-1.82522 -5.6022301 1.57672
-4.62292 -5.31569 1.88713
-2.9579 -4.3696699 1.7376
18.027901 -4.0950899 -7.4524498
4.4664202 0.824314 1.5104899
-1.90575 -5.60955 1.45531
-1.67975 -5.5636101 1.39934
18.0499 -4.1069398 -7.75248
-1.99019 -5.6384401 1.61849
4.2242599 2.0506799 1.50986
-2.1872399 -5.6669402 1.63176
15.3635 1.2768199 1.7686
4.39252 1.23633 1.40451
-2.2317801 -5.4036698 1.8004301
-2.1103499 -5.5960202 1.74262
18.1506 -4.1089802 -8.1136904
4.4545102 1.56595 1.41539
-3.07465 -5.6168199 1.38097
-3.0599 -5.6090498 1.6681
-8.0507898 6.5577998 1.7335
14.6893 2.02599 1.73491
-3.74193 -4.7579999 1.83307
-3.4888501 -4.8003402 1.84849
-7.5536499 6.2202001 1.76868
16.537901 -2.0776801 1.93224
-2.7281799 -5.62079 1.5549001
-7.2593999 6.8605499 1.64518
-7.2828798 6.7213202 1.6986901
15.3255 -2.33318 1.9067301
-7.57337 6.4149599 1.78316
15.9946 -2.36602 1.928
15.9223 -2.2011399 1.90444
-7.5890398 6.6070099 1.72695
16.2848 -4.1840301 1.95811
16.493401 -4.2193799 1.93963
16.3195 -4.0232 1.99095
-3.65538 -5.6374202 1.36347
16.992201 -3.6292701 1.98077
-4.0019798 -5.66504 1.56927
-3.8364899 -5.6518898 1.55537
16.245899 -3.5356901 2.0295401
16.3787 -3.3203399 2.00492
-4.0548501 -4.85989 1.8478301
16.064699 -3.83952 2.00981
16.7174 -4.1136298 1.98023
16.771 -4.2764602 1.9014601
-3.1348701 -5.5673399 1.79925
-9.4589796 6.7568402 1.54081
-9.3471699 6.7758698 1.38685
15.9271 -4.1216202 -1.0825
16.0746 -4.1234899 -1.14556
15.9931 -4.1054301 -0.99878597
15.8259 -4.3624101 1.85067
18.5331 -3.89691 -1.43077
15.8109 -4.3985 1.71758
14.0395 -2.7232101 1.9083
13.7606 -2.5566101 1.88863
13.7248 -2.8819001 1.91251
15.9504 -4.3880501 1.6612
-7.3316002 6.50736 1.76661
16.767401 -4.3320599 1.71245
16.5632 -4.3376398 1.51963
16.778799 -4.2974501 1.2103699
-3.73505 -5.54038 1.8091201
-3.6917701 -5.61976 1.68608
15.3825 -4.4207001 1.8083301
14.9524 -4.0500498 1.96775
15.5105 -4.4230199 1.72084
-7.1760802 6.37465 1.77447
16.082899 -4.1341901 1.96974
8.2248001 -4.8707099 1.51712
7.8680401 -4.9067602 1.5376199
7.90207 -4.9014602 1.38493
-6.3365102 -5.7474999 1.8179801
-7.2934299 6.0015898 1.67858
15.6757 -3.9646599 1.9753
15.4512 -3.8496499 1.96452
15.4534 -4.0810399 1.96574
-7.3632698 5.6013598 1.62129
15.0518 -2.27089 1.89959
-7.37956 6.2978601 1.77885
15.2166 -4.4283299 1.80857
-5.5280099 -5.7088299 1.32785
14.7225 -2.4914801 1.92566
15.1236 -2.48944 1.92857
-7.4305 6.0950198 1.72615
-5.4176898 -4.2544699 1.68407
-5.6392798 -4.7629099 1.7746
13.399 -3.56338 1.95266
13.5449 -3.63434 1.95165
-5.0232601 -5.6792202 1.64147
12.5571 -2.62462 1.89393
16.622601 -4.3351498 1.83583
-4.9120798 -4.5285602 1.72768
15.4324 -4.1811399 -1.37278
16.6054 -4.3533201 1.72277
-4.8235202 -5.6512499 1.73595
12.2242 -2.4467199 1.85314
12.5274 -2.2774999 1.8844301
12.1902 -2.09798 1.8295
16.4601 -4.3455601 1.77121
-4.76719 -5.5109901 1.84974
15.8314 -4.1561499 -1.20172
16.1126 -4.1268301 -0.82964301
-6.8253498 7.0369401 -0.408638
16.507401 -4.1415 -1.19423
-5.2495599 -5.5405002 1.8200099
-5.5406699 -5.5483599 1.85973
16.264799 -4.1318898 -1.17371
-7.02386 -4.94523 1.80451
-7.3428202 -4.8621898 1.7618999
-5.7550101 -5.3671298 1.886
-5.9257698 -5.5395198 1.86721
15.2909 -4.1582398 1.9653
-5.6261702 -5.0520802 1.83634
-5.9580202 -5.1939001 1.87796
15.1815 -4.21948 -1.21998
15.4843 -4.1837201 -1.09137
13.8465 -4.46032 1.84544
14.018 -4.50423 1.64931
14.1314 -4.4847999 1.80706
14.3667 -4.3273401 1.93953
14.4821 -4.17452 1.96078
15.6188 -4.1702099 -1.05404
14.3609 -4.4460301 1.84675
15.6372 -4.1447802 -0.81358999
-6.6318798 -5.74125 1.8815
-6.6890998 -5.8399301 1.84612
14.9561 -4.22297 1.95338
16.168501 -4.1163602 -0.98957098
12.5654 -4.4102602 1.95716
15.8053 -4.1328702 -0.98581499
12.75 -4.39222 1.9442101
14.7227 -4.2755198 -0.926027
14.1913 -4.1698198 1.9632
13.9374 -3.8543301 1.95652
-7.6606998 6.9759798 -0.427953
-6.54672 -5.9229298 1.64941
-6.7228699 -5.9318199 1.53854
13.6012 -4.3878398 1.9162101
13.776 -4.3766599 1.93068
15.933 -4.1084499 -0.909711
-7.0809798 -5.11659 1.8467
13.9208 -4.3014598 1.94117
14.1343 -4.3868899 1.91594
15.0839 -4.4418302 1.72621
-8.0478296 6.9759998 -0.830275
13.4965 -4.4960699 1.7801501
13.557 -2.02528 1.86168
13.5423 -2.2657599 1.8752199
-7.4516501 -5.7558899 1.89996
14.4832 -2.3055601 1.899
13.6684 -4.2673302 1.93537
-6.80196 -5.1288099 1.84815
14.1825 -4.29179 -0.92081201
14.3033 -4.2940302 -1.06287
-7.0541201 -4.2604799 1.70373
-7.6269102 -4.2054 1.68152
-7.3720298 -4.3917699 1.69625
13.3444 -4.5008202 1.8192
14.8266 -4.44099 1.82875
13.244 -2.3415 1.89676
13.2309 -2.1064401 1.89934
-6.5817399 -5.3677101 1.87375
15.8869 -4.1293201 -0.77323502
-8.4775696 6.9987898 -1.7773
-6.98283 -5.22615 1.87937
-6.8868399 -5.3431602 1.8978699
14.2266 -2.05458 1.85657
-7.2077699 -5.9650102 1.83733
12.9127 -2.0605199 1.89131
14.8352 -3.1294401 1.94692
15.0268 -2.8016901 1.94611
14.5868 -2.9895599 1.93752
-7.59058 -6.0774899 1.81584
14.6655 -4.3020802 -0.055790499
-7.5469098 -6.0441098 1.41018
-7.3803401 -5.9902802 1.25395
-7.34935 -6.0303998 1.53353
12.1596 -4.34021 1.95113
12.3232 -4.20156 1.96944
-7.2536001 -5.5945601 1.924
-7.0887499 -5.7211699 1.93539
-7.0040698 -5.5404701 1.9330601
-6.8578601 -5.7635102 1.90345
14.8773 -4.4534101 1.71877
13.9674 -3.2402201 1.95699
13.9524 -2.9532499 1.91994
-7.2526999 -5.7891598 1.90773
12.8956 -2.84145 1.87814
13.0706 -2.6036301 1.89271
11.9617 -4.29948 1.93726
12.1754 -4.0407 1.9352
13.9376 -4.1501899 1.95076
12.7188 -2.8663199 1.8832
12.4777 -3.1821499 1.89512
12.6416 -3.3185301 1.91048
-7.5380001 -6.0842299 1.70839
12.5787 -4.2327099 1.98191
11.8685 -2.2613001 1.79322
11.4629 -2.3146999 1.75043
12.7911 -4.51296 1.84475
13.2452 -4.5132399 1.76152
-6.4603701 -5.90171 1.59986
13.4374 -2.5085599 1.8872499
12.7799 -4.2135801 1.97816
12.7438 -3.9902201 1.95979
11.9745 -4.4605799 1.90378
11.9908 -4.5854402 1.79283
13.3083 -4.4984102 1.8262
12.1811 -4.60572 1.70362
11.3655 -4.6609998 1.48849
10.8491 -4.6744599 1.12995
11.7359 -4.6012402 1.13405
14.3059 -4.4961801 1.66284
-8.66576 6.743 1.65405
11.8458 -4.48738 0.154921
12.7788 -4.48524 0.86633402
11.7422 -4.3470702 1.9087
-6.7293601 -5.5644498 1.90503
13.1105 -4.5213299 1.8055201
12.3308 -4.6031499 1.61647
12.4007 -4.5846 1.54006
12.3672 -3.8160501 1.93065
-10.0167 6.3763499 1.75255
10.5203 -4.65769 1.80317
-8.7624903 6.23842 1.89013
11.947 -4.6174002 1.61701
11.3785 -4.47647 -0.37382001
12.2354 -4.5970802 1.49617
-14.8926 -6.56179 1.51606
12.2757 -4.6146002 1.71363
-10.3079 6.6254501 1.58004
11.6841 -3.8001101 1.87319
11.7979 -4.2016702 1.9128
10.9837 -4.6944499 1.64344
10.8434 -4.7009301 1.5302401
11.1267 -4.6826301 1.5249701
11.1042 -3.8527701 1.84304
10.8447 -4.1786299 1.88188
11.3077 -4.0991998 1.88714
12.375 -4.3857698 -1.54649
-8.5576897 5.63274 1.81708
11.0768 -4.4766502 1.88952
10.9048 -4.5128398 1.88187
11.5134 -3.9738901 1.87708
11.6103 -4.2333598 1.91084
11.0082 -4.4883499 -3.1587
-8.6136503 6.8140998 1.5364701
11.4289 -4.5054002 1.86689
11.142 -4.3069 1.9046
10.4347 -4.2474999 1.89267
10.8189 -4.6712098 1.75825
10.5859 -4.7100501 1.65316
4.23733 -5.0901499 -4.8716502
4.1800098 -5.1105299 -4.69136
4.0418901 -5.1184702 -4.9432502
10.9405 -4.5910702 1.85632
4.3455801 -5.0936198 -5.0441699
11.1152 -4.6375999 1.79645
15.9555 -4.1461501 -3.8194799
10.5269 -4.3756099 1.90435
-9.9612999 6.0753298 1.85563
10.2711 -4.7410898 1.64097
10.2363 -4.7402401 1.45173
11.3574 -4.65518 1.6788501
-12.763 -6.3236399 1.76484
9.1809502 -4.45716 1.85658
9.3831196 -4.5764198 1.8514
9.48349 -4.37254 1.85281
-10.7875 5.9491601 1.84576
9.1717901 -4.5967798 1.85285
9.5756502 -4.6849899 1.82486
9.3986702 -4.7614999 1.74576
9.67379 -4.7771201 1.66854
9.5506697 -4.7772799 1.38091
9.9892998 -4.7723598 1.64652
9.8950701 -4.7774801 1.75429
-10.8428 -6.2911601 1.34683
15.0824 -4.20468 -4.7107401
9.2988796 -4.7085299 1.83093
9.0394602 -4.75177 1.8049901
-13.8186 -5.4416499 1.80659
8.9440498 -4.8083 1.72349
9.0892096 -4.8080502 1.66584
-15.1057 6.2227001 1.74277
9.33426 -4.7971401 1.49272
8.7069101 -4.7733002 1.83316
8.7593699 -4.6511798 1.8487
7.7912002 -4.73177 1.8213201
7.6255202 -4.8421302 1.77894
7.8006201 -4.8769698 1.68761
8.9781103 -4.5659399 1.85365
-12.1476 -6.39852 1.39644
8.04076 -4.5775199 1.83534
7.7451 -4.3042002 1.8149101
7.8134899 -4.4829102 1.83134
8.9266796 -4.7996502 1.7740901
8.8153696 -4.8021798 1.7480201
-11.8657 -5.5528798 1.81481
8.0041599 -4.7585502 1.82477
8.0159502 -4.7786899 1.82436
8.9465399 -4.8166499 1.59163
-12.794 6.60639 -0.628748
-13.0639 6.5971699 -0.86158502
8.8338699 -4.8112798 1.25551
-13.0925 6.6022501 -0.469942
8.7633305 -4.82447 1.52823
-14.15 -6.0430698 1.80461
7.0083299 -4.3697 1.81332
7.0894098 -4.6136699 1.8408999
7.4112101 -4.50384 1.83672
-17.618799 2.9999599 1.4266599
7.3206301 -4.6212902 1.84785
11.3198 -4.5048199 -5.1617799
6.5167699 -4.95259 1.74871
6.56916 -4.8237801 1.86238
6.21275 -4.8215399 1.84029
7.65341 -4.6199298 1.84214
7.5019999 -4.7356601 1.8379
-13.5924 -5.83004 1.80722
-15.1225 -6.5021801 1.7725
9.9721003 -4.6501899 -5.6146898
7.35987 -4.02142 1.7641799
-17.5667 3.2267101 1.4562401
7.45578 -4.91255 1.60667
7.4558401 -4.9257698 1.37003
7.6347899 -4.9082599 1.51806
-13.2495 -5.9036598 1.81257
4.3055701 -4.37678 1.85918
10.0505 -4.5876899 -4.6176801
7.1784501 -4.8202 1.81287
6.2433701 -5.0023599 1.6129
7.1199799 -4.9554901 1.42314
6.7045598 -4.9879498 1.39247
6.94558 -4.9586401 1.08055
-13.2045 -6.3363299 1.7965
7.57302 -4.9125299 1.0696501
-13.7248 -6.4405899 1.74303
5.9813099 -4.98142 1.74014
7.59022 -4.8907599 1.67627
5.8710799 -4.8727999 1.8260601
-14.1415 -6.5670199 1.73903
5.6231298 -4.8818798 1.81986
-14.1055 -6.5697799 1.60791
6.4976501 -4.99929 1.56332
6.3248501 -5.0087399 1.36824
5.9769702 -5.0181999 0.93567199
8.4004002 -4.7737098 0.27750999
-14.9054 -5.6712699 1.8085999
-15.2397 -6.0655999 1.82997
7.2153702 -4.9354501 1.6196899
7.4292598 -4.87711 1.74756
4.4316602 -5.0233798 1.8377
4.1559601 -5.06705 1.81339
6.71907 -4.9846101 1.58179
6.8433599 -4.8884101 1.7906899
-14.1743 5.5346098 1.9357001
4.4436798 -5.08318 1.77247
4.7191 -5.0095201 1.7977099
6.2894902 -4.5325799 1.8477401
-15.3251 -6.54842 1.69215
6.8839302 -4.0527 1.75572
4.7203698 -4.8074398 1.8445899
6.9306102 -4.9393601 0.70646799
5.0008001 -4.8943601 1.84384
-14.2036 6.4675899 1.59118
-16.4561 -5.5812502 1.86376
-14.121 5.67029 1.92636
4.0983801 -5.1659098 1.70281
-16.052299 -5.8349199 1.8516901
-14.6451 5.8687901 1.96225
-14.6887 6.00318 1.9846801
3.9551699 -5.0082102 1.8649
-14.7738 -6.4317002 0.74999201
-15.1746 -6.4653401 0.66436303
-14.9308 -6.3789301 0.50503498
-14.6378 5.6929102 1.94388
3.9716101 -4.2230301 1.84884
-13.8476 -6.30339 0.66107398
4.5789599 -5.1086798 1.68406
4.5911498 -5.1331401 1.5384099
4.79814 -5.0899 1.60179
4.3245702 -5.1522198 1.62664
5.0401402 -5.0560298 1.71237
5.06635 -5.0824299 1.49318
-17.000099 -6.3640499 -0.695638
-16.921499 -6.5470099 -0.68205601
9.9089003 -4.5791702 -3.2074499
-15.7247 -6.56037 0.93301398
-14.5652 -6.35777 0.61717999
6.0636601 -4.9827499 0.46738899
9.9126701 -4.61274 -3.6231101
-17.0839 -6.0403199 1.34509
-17.018999 -6.1859999 1.37277
-17.119101 -5.9682298 1.53803
9.6960602 -4.6252499 -4.5636702
