# .PCD v0.7 - Point Cloud Data file format
VERSION 0.7
FIELDS x y z
SIZE 4 4 4
TYPE F F F
COUNT 1 1 1
WIDTH 1572
HEIGHT 1
VIEWPOINT 0 0 0 1 0 0 0
POINTS 1572
DATA ascii
4.3985648 0.2835283 2.6813519
4.4139261 0.27107054 2.6817596
4.4263473 0.25611079 2.6820891
4.4357405 0.23878846 2.6823385
4.4416142 0.21966821 2.6824944
4.4418216 0.2 2.7265561
4.4441581 0.2 2.6379604
4.4437537 0.20898545 2.6379604
4.4424887 0.2181963 2.6379604
4.4402981 0.22751582 2.6379604
4.4371371 0.23680948 2.6379604
4.4329867 0.24592946 2.6379604
4.4278579 0.25472099 2.6379604
4.4217935 0.26302981 2.6379604
4.4148688 0.27071068 2.6379604
4.4071879 0.27763531 2.6379604
4.3988791 0.28369954 2.6379604
4.3900876 0.2888284 2.6379604
4.3809676 0.29297882 2.6379604
4.3716741 0.2961399 2.6379604
4.3623543 0.29833055 2.6379604
4.3531437 0.2995955 2.6379604
4.4420571 0.21966821 2.6602283
4.4430947 0.20970796 2.6825335
4.4435382 0.20970796 2.6602478
4.436182 0.23878846 2.6601503
4.4391928 0.22925617 2.68243
4.4396353 0.22925617 2.6601961
4.4267859 0.25611079 2.6600256
4.4315052 0.24761939 2.6822259
4.4319453 0.24761939 2.6600943
4.414362 0.27107054 2.6598608
4.4205151 0.26387656 2.6819344
4.4209523 0.26387656 2.6599483
4.3989964 0.2835283 2.659657
4.4065342 0.27769649 2.6815634
4.4069681 0.27769649 2.6597629
4.3818188 0.29257938 2.6594293
4.3901348 0.2885052 2.6811283
4.3905644 0.2885052 2.6595452
4.3640728 0.29796824 2.6591938
4.3725429 0.29571751 2.6806614
4.3729677 0.29571751 2.6593118
4.3534966 0.29950893 2.680156
4.3539166 0.29950893 2.659059
4.3440208 0.30000001 2.6587994
4.3436089 0.30000001 2.6796367
4.3429217 0.30000001 2.7004671
4.3419604 0.30000001 2.7212849
4.3509336 0.2995955 2.7217586
4.3601317 0.29833055 2.722244
4.3694382 0.2961399 2.7227354
4.3787189 0.29297882 2.7232251
4.3878264 0.2888284 2.723706
4.3966055 0.28369954 2.7241693
4.4049029 0.27763531 2.7246072
4.4125729 0.27071068 2.7250123
4.419488 0.26302981 2.7253771
4.4255438 0.25472099 2.7256968
4.4306655 0.24592946 2.7259672
4.4348102 0.23680948 2.726186
4.4379668 0.22751582 2.7263527
4.4401546 0.2181963 2.7264681
4.4414177 0.20898545 2.7265348
4.3629565 0.29796824 2.70139
4.352807 0.29950893 2.7009876
4.3806901 0.29257938 2.7020931
4.3718452 0.29571751 2.7017424
4.3978558 0.2835283 2.7027738
4.3894296 0.2885052 2.7024398
4.4132104 0.27107054 2.7033827
4.4058218 0.27769649 2.7030897
4.4256263 0.25611079 2.7038751
4.4197965 0.26387656 2.703644
4.4350152 0.23878846 2.7042475
4.4307818 0.24761939 2.7040796
4.4408865 0.21966821 2.7044802
4.4384665 0.22925617 2.7043843
4.4423661 0.20970796 2.7045388
4.4428439 0.2 2.7044213
4.443574 0.2 2.6822731
4.4440122 0.2 2.6601176
4.3441582 0.30000001 2.6379604
4.3632131 0.29655617 2.4885421
4.3421326 0.29655617 2.3390765
4.3057418 0.29655617 2.1875031
4.2605429 0.29655617 2.0546122
4.1986027 0.29655617 1.9155149
4.1234093 0.29655617 1.7823248
4.0375576 0.29655617 1.6590514
3.9401042 0.29655617 1.5438347
3.8362684 0.29655617 1.4418412
3.7198622 0.29655617 1.346863
3.5909255 0.29655617 1.2606592
3.456368 0.29655617 1.1882855
3.3204298 0.29655617 1.1308157
3.1755607 0.29655617 1.0849323
3.0296066 0.29655617 1.0533746
2.8817568 0.29655617 1.0355325
2.7326093 0.29655617 1.0314608
2.5802891 0.29655617 1.0416317
4.3879066 0.28612491 2.4862359
4.3665009 0.28612491 2.3344634
4.3295484 0.28612491 2.1805503
4.2836514 0.28612491 2.045608
4.2207551 0.28612491 1.904364
4.1444011 0.28612491 1.7691181
4.0572243 0.28612491 1.6439419
3.958267 0.28612491 1.5269468
3.8528285 0.28612491 1.4233791
3.7346253 0.28612491 1.3269349
3.6036987 0.28612491 1.2394006
3.4670644 0.28612491 1.1659098
3.3290279 0.28612491 1.107553
3.1819229 0.28612491 1.0609614
3.0337157 0.28612491 1.0289165
2.883584 0.28612491 1.0107989
2.7321343 0.28612491 1.0066644
2.5774632 0.28612491 1.0169923
4.4086199 0.26978788 2.4843013
4.386941 0.26978788 2.3305936
4.3495173 0.26978788 2.1747181
4.3030353 0.26978788 2.0380554
4.2393374 0.26978788 1.8950104
4.1620097 0.26978788 1.7580401
4.0737214 0.26978788 1.6312679
3.9735019 0.26978788 1.512781
3.8667192 0.26978788 1.4078928
3.747009 0.26978788 1.310219
3.614413 0.26978788 1.2215686
3.4760365 0.26978788 1.1471407
3.3362401 0.26978788 1.0880399
3.1872594 0.26978788 1.0408542
3.0371625 0.26978788 1.0084008
2.8851166 0.26978788 0.99005222
2.7317359 0.26978788 0.98586488
2.5750926 0.26978788 0.99632454
4.4243011 0.24864417 2.4828367
4.4024158 0.24864417 2.3276639
4.3646355 0.24864417 2.1703029
4.3177104 0.24864417 2.0323374
4.2534051 0.24864417 1.887929
4.1753402 0.24864417 1.7496531
4.0862107 0.24864417 1.6216727
3.9850361 0.24864417 1.5020565
3.8772357 0.24864417 1.3961686
3.7563844 0.24864417 1.2975638
3.6225245 0.24864417 1.2080684
3.4828291 0.24864417 1.1329311
3.3417001 0.24864417 1.0732669
3.1912994 0.24864417 1.0256315
3.0397723 0.24864417 0.99286872
2.886277 0.24864417 0.97434527
2.7314341 0.24864417 0.97011805
2.573298 0.24864417 0.98067737
4.4338365 0.22451769 2.481946
4.4118252 0.22451769 2.3258827
4.3738279 0.22451769 2.167618
4.3266335 0.22451769 2.0288608
4.2619591 0.22451769 1.8836232
4.1834464 0.22451769 1.7445536
4.0938048 0.22451769 1.6158384
3.9920495 0.22451769 1.4955355
3.88363 0.22451769 1.3890396
3.762085 0.22451769 1.2898688
3.6274567 0.22451769 1.1998596
3.4869592 0.22451769 1.1242909
3.3450201 0.22451769 1.0642843
3.1937561 0.22451769 1.0163754
3.0413589 0.22451769 0.98342454
2.8869824 0.22451769 0.96479475
2.7312508 0.22451769 0.96054327
2.5722067 0.22451769 0.97116321
2.5085168 0.2 0.97661895
2.5051765 0.21305151 0.97800046
2.5006509 0.2264366 0.98144686
2.4952161 0.23920055 0.98682201
2.490834 0.24786541 0.99179381
2.4860864 0.25609031 0.9976688
2.480938 0.26393217 1.0045297
2.470084 0.27759933 1.0204861
2.4611106 0.28645775 1.0351874
2.4540298 0.29202101 1.0478481
2.4471841 0.29616413 1.0611433
2.4414432 0.2985974 1.0732803
2.5719249 0.21075174 0.96870685
2.5323887 0.21075174 0.97371721
2.5718675 0.20390917 0.96820688
2.5323195 0.20390917 0.97321874
2.652313 0.22451769 0.96391606
2.7312036 0.21075174 0.95807129
2.6521492 0.21075174 0.96144903
2.5327287 0.22451769 0.97616619
2.5720375 0.21763819 0.96968853
2.5325246 0.21763819 0.97469598
2.5726604 0.23684286 0.97511953
2.5332761 0.23684286 0.98011065
2.5724101 0.23072554 0.97293675
2.532974 0.23072554 0.97793442
2.6529469 0.24864417 0.97347164
2.7313271 0.23684286 0.96452481
2.6525764 0.23684286 0.96788961
2.5340452 0.24864417 0.98565179
2.5729568 0.24282895 0.97770405
2.5336337 0.24282895 0.98268735
2.4971457 0.26978788 1.0071509
2.5741196 0.25978506 0.98784095
2.49577 0.25978506 0.99872327
2.4964337 0.26494372 1.0027887
2.5004976 0.28612491 1.0276824
2.576232 0.27875775 1.0062594
2.4987569 0.27875775 1.0170202
2.5044935 0.29655617 1.0521592
2.5788167 0.29210687 1.0287932
2.5024114 0.29210687 1.0394055
2.463973 0.29210687 1.046157
2.501431 0.28928989 1.0333992
2.4628482 0.28928989 1.0401763
2.4663618 0.29655617 1.058857
2.5034342 0.29453978 1.0456707
2.4651465 0.29453978 1.0523958
2.5817521 0.29912779 1.0543865
2.506562 0.29912779 1.0648299
2.468735 0.29912779 1.0714742
2.5055177 0.29804814 1.0584325
2.4675367 0.29804814 1.0651037
4.3531437 0.2995955 2.6379604
4.3623543 0.29833055 2.6379604
4.3716741 0.2961399 2.6379604
4.3809676 0.29297882 2.6379604
4.3900876 0.2888284 2.6379604
4.3988791 0.28369954 2.6379604
4.4071879 0.27763531 2.6379604
4.4148688 0.27071068 2.6379604
4.4217935 0.26302981 2.6379604
4.4278579 0.25472099 2.6379604
4.4329867 0.24592946 2.6379604
4.4371371 0.23680948 2.6379604
4.4402981 0.22751582 2.6379604
4.4424887 0.2181963 2.6379604
4.4437537 0.20898545 2.6379604
4.4441581 0.2 2.6379604
4.3684654 0.29655617 2.5638442
4.3504305 0.29912779 2.4897358
4.3556404 0.29912779 2.5644364
4.3569169 0.29912779 2.6013587
4.3490796 0.29978123 2.5647392
4.3503509 0.29978123 2.6015096
4.3697519 0.29655617 2.6010637
4.3621159 0.29804814 2.5641375
4.3633976 0.29804814 2.6012099
4.39324 0.28612491 2.5627003
4.3760796 0.29210687 2.4873405
4.3813744 0.29210687 2.5632482
4.3826714 0.29210687 2.6007671
4.3750329 0.29453978 2.5635409
4.3763247 0.29453978 2.6009128
4.394546 0.28612491 2.6004944
4.3874536 0.28928989 2.5629673
4.3887553 0.28928989 2.6006274
4.414021 0.26978788 2.5617406
4.398663 0.27875775 2.4852312
4.4040318 0.27875775 2.562202
4.4053469 0.27875775 2.6002462
4.3987141 0.28264683 2.5624473
4.4000249 0.28264683 2.6003685
4.4153442 0.26978788 2.6000166
4.4091487 0.27446645 2.5619657
4.4104676 0.27446645 2.6001287
4.4297538 0.24864417 2.5610142
4.4171219 0.25978506 2.4835072
4.4225512 0.25978506 2.5613468
4.4238811 0.25978506 2.5998206
4.4184361 0.26494372 2.5615368
4.4197631 0.26494372 2.599915
4.4310899 0.24864417 2.5996549
4.426333 0.25434083 2.561172
4.4276662 0.25434083 2.5997336
4.4393201 0.22451769 2.5605724
4.4298711 0.23684286 2.4823165
4.4353423 0.23684286 2.560756
4.4366827 0.23684286 2.5995264
4.4327435 0.24282895 2.5608761
4.4340816 0.24282895 2.5995862
4.4406638 0.22451769 2.5994351
4.4375372 0.23072554 2.5606546
4.438879 0.23072554 2.5994761
4.4362979 0.21075174 2.4817162
4.4417901 0.21075174 2.5604584
4.4431353 0.21075174 2.5993783
4.4408031 0.21763819 2.560504
4.4421477 0.21763819 2.599401
4.4422927 0.20390917 2.5604351
4.4436388 0.20390917 2.5993667
4.4439716 0.20390917 2.6187074
4.4434466 0.20732191 2.5993712
4.4434681 0.21075174 2.6187134
4.4437795 0.20732191 2.6187098
4.4437137 0.20051934 2.599365
4.4440465 0.20051934 2.6187067
2.433547 0.30000001 1.0919768
2.5174618 0.30000001 1.0764292
2.6006277 0.30000001 1.0655842
2.6827033 0.30000001 1.0592436
2.763381 0.30000001 1.0571834
2.8338525 0.30000001 1.058755
2.905421 0.30000001 1.0635778
2.9778852 0.30000001 1.0718046
3.0510242 0.30000001 1.0835739
3.1245968 0.30000001 1.0990065
3.1983449 0.30000001 1.118203
3.2719941 0.30000001 1.1412411
3.3452568 0.30000001 1.1681725
3.417835 0.30000001 1.1990212
3.4894235 0.30000001 1.2337816
3.5597138 0.30000001 1.2724165
3.6283977 0.30000001 1.3148572
3.6951721 0.30000001 1.3610024
3.759742 0.30000001 1.4107192
3.821826 0.30000001 1.4638435
3.8811593 0.30000001 1.5201824
3.9374981 0.30000001 1.5795157
3.9906225 0.30000001 1.6415997
4.040339 0.30000001 1.7061696
4.0864844 0.30000001 1.7729439
4.1289253 0.30000001 1.8416278
4.1675601 0.30000001 1.9119182
4.2023206 0.30000001 1.9835067
4.2331691 0.30000001 2.0560849
4.2601004 0.30000001 2.1293476
4.2831388 0.30000001 2.2029967
4.3023353 0.30000001 2.2767448
4.3177676 0.30000001 2.3503175
4.3295369 0.30000001 2.4234564
4.3377638 0.30000001 2.4959207
4.3425865 0.30000001 2.5674891
3.9827909 0.2 1.4812189
3.9181666 0.2 1.416698
3.8486533 0.2 1.3545291
3.7743185 0.2 1.2951958
3.6952884 0.2 1.2391895
3.6117513 0.2 1.1870023
3.5239587 0.2 1.1391165
3.4322274 0.2 1.0959954
3.3369367 0.2 1.0580727
3.2385266 0.2 1.0257421
3.1374907 0.2 0.99934721
3.0343704 0.2 0.97917289
2.9297454 0.2 0.96543711
2.8242233 0.2 0.95828497
2.7184272 0.2 0.95778471
2.6129854 0.2 0.96392566
4.44205 0.2 2.5538008
4.4357462 0.2 2.4700124
4.4253025 0.2 2.3869057
4.4108047 0.2 2.3047826
4.3923659 0.2 2.223932
4.3701277 0.2 2.1446276
4.3442531 0.2 2.0671234
4.3149285 0.2 1.9916537
4.2823567 0.2 1.9184294
4.2467556 0.2 1.8476369
4.2083554 0.2 1.7794379
4.1673932 0.2 1.713968
4.1241117 0.2 1.651338
4.0787554 0.2 1.5916327
4.0315685 0.2 1.5349137
2.433547 0.30000001 1.0919768
2.4329908 0.30000001 1.1834075
4.3419604 0.30000001 2.7212849
4.3429217 0.30000001 2.7004671
4.3436089 0.30000001 2.6796367
4.3440208 0.30000001 2.6587994
4.3441582 0.30000001 2.6379604
4.2751107 0.30000001 2.7885246
4.2751107 0.30000001 2.4999678
4.2751107 0.30000001 2.6442463
4.2751107 0.30000001 2.7163856
4.3096347 0.30000001 2.7885246
4.3096347 0.30000001 2.6442463
4.3096347 0.30000001 2.7163856
4.2751107 0.30000001 2.5721071
4.3096347 0.30000001 2.4999678
4.3096347 0.30000001 2.5721071
4.3425865 0.30000001 2.5674891
4.3377638 0.30000001 2.4959207
4.3295369 0.30000001 2.4234564
4.3177676 0.30000001 2.3503175
4.3023353 0.30000001 2.2767448
4.2831388 0.30000001 2.2029967
4.2601004 0.30000001 2.1293476
4.2331691 0.30000001 2.0560849
4.2023206 0.30000001 1.9835067
4.1675601 0.30000001 1.9119182
4.1289253 0.30000001 1.8416278
4.0864844 0.30000001 1.7729439
4.040339 0.30000001 1.7061696
3.9906225 0.30000001 1.6415997
3.9374981 0.30000001 1.5795157
3.8811593 0.30000001 1.5201824
3.821826 0.30000001 1.4638435
3.759742 0.30000001 1.4107192
3.6951721 0.30000001 1.3610024
3.6283977 0.30000001 1.3148572
3.5597138 0.30000001 1.2724165
3.4894235 0.30000001 1.2337816
3.417835 0.30000001 1.1990212
3.3452568 0.30000001 1.1681725
3.2719941 0.30000001 1.1412411
3.1983449 0.30000001 1.118203
3.1245968 0.30000001 1.0990065
3.0510242 0.30000001 1.0835739
2.9778852 0.30000001 1.0718046
2.905421 0.30000001 1.0635778
2.8338525 0.30000001 1.058755
2.763381 0.30000001 1.0571834
2.6827033 0.30000001 1.0592436
2.6006277 0.30000001 1.0655842
2.5174618 0.30000001 1.0764292
4.2529116 0.30000001 2.7165844
4.2454743 0.30000001 2.8574815
4.2380371 0.30000001 2.9983785
4.2305999 0.30000001 3.1392753
4.2231627 0.30000001 3.2801723
4.2157254 0.30000001 3.4210691
4.2082882 0.30000001 3.5619662
4.2008514 0.30000001 3.7028632
4.1934142 0.30000001 3.84376
4.185977 0.30000001 3.984657
4.1785398 0.30000001 4.1255541
4.1697001 0.30000001 4.2131181
4.1525698 0.30000001 4.2997661
4.1273394 0.30000001 4.3845768
4.0942011 0.30000001 4.466629
4.0533938 0.30000001 4.545053
4.0053482 0.30000001 4.6191883
3.9505436 0.30000001 4.6884255
3.8894582 0.30000001 4.7521558
3.8225968 0.30000001 4.8097968
3.7505672 0.30000001 4.8608761
3.6740024 0.30000001 4.9049468
3.5935361 0.30000001 4.9415636
3.5098512 0.30000001 4.9703307
3.4238284 0.30000001 4.9910555
3.3363979 0.30000001 5.0035949
3.2484896 0.30000001 5.0078068
3.1887262 0.30000001 5.0061388
3.1290748 0.30000001 5.0011477
3.0697534 0.30000001 4.9928536
3.0109799 0.30000001 4.9812746
2.9529634 0.30000001 4.9664378
2.8958802 0.30000001 4.9483995
2.8398981 0.30000001 4.9272227
2.7851846 0.30000001 4.9029713
2.7319055 0.30000001 4.8757124
2.6802173 0.30000001 4.8455329
2.6302755 0.30000001 4.8125229
2.5822344 0.30000001 4.7767725
2.5362484 0.30000001 4.7383838
2.4924703 0.30000001 4.6975021
2.451052 0.30000001 4.654285
2.4121456 0.30000001 4.6088896
2.4117396 0.30000001 4.675601
2.4113336 0.30000001 4.7423124
2.4529345 0.30000001 4.7831678
2.4965703 0.30000001 4.8219295
2.5421114 0.30000001 4.8584828
2.5894282 0.30000001 4.892714
2.6383913 0.30000001 4.9245167
2.6888742 0.30000001 4.9538178
2.7407515 0.30000001 4.9805522
2.7938967 0.30000001 5.0046558
2.8481827 0.30000001 5.0260663
2.9034767 0.30000001 5.0447354
2.9596448 0.30000001 5.0606179
3.0165524 0.30000001 5.0736685
3.0740592 0.30000001 5.0838466
3.1319993 0.30000001 5.0911336
3.1902001 0.30000001 5.0955162
3.2484896 0.30000001 5.0969796
3.296654 0.30000001 5.0958228
3.3448148 0.30000001 5.0923653
3.3928447 0.30000001 5.0866261
3.4406164 0.30000001 5.0786252
3.4880025 0.30000001 5.0683818
3.5348756 0.30000001 5.0559158
3.5811083 0.30000001 5.0412469
3.6265731 0.30000001 5.024394
3.6711495 0.30000001 5.0053844
3.7147439 0.30000001 4.9842715
3.7572694 0.30000001 4.9611168
3.7986393 0.30000001 4.9359808
3.8387671 0.30000001 4.9089255
3.8775656 0.30000001 4.8800116
3.9149487 0.30000001 4.8492994
3.9508288 0.30000001 4.8168511
3.9851234 0.30000001 4.7827315
4.0177627 0.30000001 4.7470193
4.0486817 0.30000001 4.7097988
4.0778151 0.30000001 4.6711526
4.1050963 0.30000001 4.631165
4.1304603 0.30000001 4.5899191
4.153842 0.30000001 4.5474982
4.1751752 0.30000001 4.5039859
4.1944008 0.30000001 4.4594727
4.2114863 0.30000001 4.4140778
4.2264056 0.30000001 4.3679271
4.2391324 0.30000001 4.3211465
4.2496405 0.30000001 4.2738628
4.2579031 0.30000001 4.226202
4.263895 0.30000001 4.1782908
4.2675891 0.30000001 4.1302543
4.2717209 0.30000001 4.0519781
4.2758527 0.30000001 3.9737022
4.2799845 0.30000001 3.895426
4.2841158 0.30000001 3.8171501
4.2882476 0.30000001 3.738874
4.2923794 0.30000001 3.6605978
4.2965112 0.30000001 3.5823219
4.300643 0.30000001 3.5040457
4.3047748 0.30000001 3.4257696
4.3089066 0.30000001 3.3474936
4.3130383 0.30000001 3.2692175
4.3171701 0.30000001 3.1909413
4.3213019 0.30000001 3.1126654
4.3254337 0.30000001 3.0343893
4.3295655 0.30000001 2.9561131
4.3336973 0.30000001 2.8778372
4.3378286 0.30000001 2.799561
4.2549849 0.30000001 2.6379604
4.2548556 0.30000001 2.6576235
4.2544665 0.30000001 2.6772852
4.2538185 0.30000001 2.6969407
2.6003947 0.30000001 1.1552881
2.763381 0.30000001 1.1463566
2.8974082 0.30000001 1.1523902
3.0347979 0.30000001 1.1712583
3.1738081 0.30000001 1.2039341
3.3124325 0.30000001 1.2510847
3.4484668 0.30000001 1.3129926
3.5796013 0.30000001 1.3894948
3.7035363 0.30000001 1.4799491
3.8181043 0.30000001 1.5832373
3.9213927 0.30000001 1.6978054
4.011847 0.30000001 1.8217403
4.0883489 0.30000001 1.9528749
4.1502571 0.30000001 2.0889089
4.1974077 0.30000001 2.2275336
4.2300835 0.30000001 2.3665438
4.2489514 0.30000001 2.5039332
4.2549849 0.30000001 2.6379604
4.054985 0.1 2.6379604
4.2370143 0.29919097 2.6379604
4.2185926 0.29666108 2.6379604
4.1999536 0.29227978 2.6379604
4.181366 0.28595766 2.6379604
4.163126 0.27765679 2.6379604
4.1455431 0.2673991 2.6379604
4.1289253 0.25527063 2.6379604
4.1135635 0.24142136 2.6379604
4.0997143 0.22605963 2.6379604
4.0875859 0.20944194 2.6379604
4.0773282 0.19185892 2.6379604
4.0690274 0.17361894 2.6379604
4.062705 0.15503164 2.6379604
4.0583239 0.13639261 2.6379604
4.0557942 0.11797089 2.6379604
4.054873 0.1 2.6549869
4.0545359 0.1 2.6720123
4.0539751 0.1 2.6890323
4.0531893 0.1 2.7060423
4.0539975 0.11797089 2.706085
4.0565238 0.13639261 2.7062182
4.0608988 0.15503164 2.7064493
4.0672121 0.17361894 2.7067826
4.0755014 0.19185892 2.7072201
4.0857449 0.20944194 2.7077608
4.0978565 0.22605963 2.7084
4.1116867 0.24142136 2.70913
4.127027 0.25527063 2.7099397
4.1436214 0.2673991 2.7108157
4.16118 0.27765679 2.7117426
4.1793947 0.28595766 2.7127039
4.1979561 0.29227978 2.7136838
4.2165694 0.29666108 2.7146664
4.2349653 0.29919097 2.7156372
4.2529116 0.30000001 2.7165844
4.2538185 0.30000001 2.6969407
4.2544665 0.30000001 2.6772852
4.2548556 0.30000001 2.6576235
4.2549849 0.30000001 2.6379604
2.6797385 0.2932792 1.2001991
2.9601359 0.2932792 1.2112715
3.2462947 0.2932792 1.281145
3.5251329 0.2932792 1.4157133
3.7557838 0.2932792 1.5942696
3.9363501 0.2932792 1.8023186
4.0887165 0.2932792 2.0743654
4.1710739 0.2932792 2.3337328
2.6825924 0.27288723 1.249253
2.953423 0.27288723 1.2599478
3.2298186 0.27288723 1.3274373
3.4991431 0.27288723 1.4574144
3.7219248 0.27288723 1.6298786
3.8963304 0.27288723 1.8308293
4.0434985 0.27288723 2.0935943
4.1230459 0.27288723 2.3441126
2.6849959 0.24090603 1.2905695
2.9477689 0.24090603 1.300946
3.2159412 0.24090603 1.3664275
3.477253 0.24090603 1.4925376
3.6934063 0.24090603 1.6598707
3.8626232 0.24090603 1.8548428
4.0054126 0.24090603 2.1097901
4.0825934 0.24090603 2.3528552
2.6868296 0.19947684 1.3220875
2.9434557 0.19947684 1.3322213
3.2053552 0.19947684 1.3961711
3.4605544 0.19947684 1.5193312
3.6716514 0.19947684 1.6827501
3.83691 0.19947684 1.8731613
3.9763594 0.19947684 2.1221449
4.0517349 0.19947684 2.3595243
2.6879673 0.15208514 1.3416471
2.940779 0.15208514 1.3516302
3.1987853 0.15208514 1.4146296
3.4501913 0.15208514 1.5359589
3.6581507 0.15208514 1.6969488
3.8209527 0.15208514 1.8845296
3.9583292 0.15208514 2.1298122
4.0325842 0.15208514 2.363663
2.4329908 0.30000001 1.1834075
2.4318688 0.29994074 1.188657
2.4252124 0.29641142 1.2239485
2.4209249 0.28909421 1.2532152
2.4182835 0.27952632 1.2775956
2.4166563 0.26704308 1.3005549
2.4160693 0.25539356 1.3171612
2.4160318 0.24226135 1.332348
2.4164853 0.22776052 1.3459914
2.4175501 0.20915343 1.359907
2.4187405 0.19318832 1.3692962
2.4201558 0.17649858 1.3770266
2.4223604 0.15255597 1.3849034
2.4247484 0.12765715 1.3895471
2.4274099 0.1 1.3908181
2.5335989 0.2932792 1.2162172
2.6782646 0.29829836 1.1748642
2.5295501 0.29829836 1.1911645
2.4541037 0.29829836 1.2053953
2.5274796 0.29957321 1.1783555
2.4513655 0.29957321 1.1927123
2.4499886 0.29989323 1.1863351
2.4894826 0.29957321 1.1850064
2.526439 0.29989323 1.1719151
2.4882739 0.29989323 1.1785952
2.6043673 0.29829836 1.1810424
2.6775112 0.29957321 1.1619109
2.6029596 0.29957321 1.1681437
2.8185453 0.2932792 1.1988251
2.963603 0.29829836 1.1861317
2.8195174 0.29829836 1.173466
2.4594591 0.2932792 1.2302016
2.5315938 0.29619154 1.2038108
2.4568069 0.29619154 1.2179172
2.5414388 0.27288723 1.2647246
2.6812241 0.28458771 1.2257338
2.5376799 0.28458771 1.2414674
2.4648566 0.28458771 1.2552034
2.5356743 0.28934148 1.2290579
2.462204 0.28934148 1.242916
2.4698284 0.27288723 1.2782319
2.5396047 0.27907994 1.253376
2.4674025 0.27907994 1.266995
2.5480418 0.24090603 1.3055807
2.6838393 0.25846648 1.2706863
2.5448642 0.25846648 1.2859191
2.474359 0.25846648 1.2992178
2.5431757 0.26607919 1.2754714
2.4721255 0.26607919 1.288873
2.4785621 0.24090603 1.3186861
2.5464907 0.25006592 1.2959833
2.4765103 0.25006592 1.3091831
2.5530791 0.19947684 1.3367476
2.6859872 0.22131482 1.3076113
2.5507655 0.22131482 1.3224328
2.4821644 0.22131482 1.3353723
2.5494502 0.23141986 1.3142937
2.4804246 0.23141986 1.3273134
2.4852245 0.19947684 1.3495464
2.5519781 0.21064602 1.3299357
2.4837682 0.21064602 1.3428015
2.556205 0.15208514 1.3560894
2.6874893 0.17631553 1.3334296
2.5548918 0.17631553 1.3479633
2.487622 0.17631553 1.3606519
2.5540459 0.18806811 1.34273
2.4865034 0.18806811 1.3554701
2.4893591 0.15208514 1.3686979
2.5556123 0.16429517 1.3524218
2.488575 0.16429517 1.3650664
2.6882775 0.1249608 1.3469757
2.5570567 0.1249608 1.3613585
2.4904854 0.1249608 1.3739152
2.5567081 0.13853878 1.359202
2.4900246 0.13853878 1.3717799
2.5572538 0.11144979 1.3625784
2.4907463 0.11144979 1.3751231
4.054985 0.1 2.6379604
4.0557942 0.11797089 2.6379604
4.0583239 0.13639261 2.6379604
4.062705 0.15503164 2.6379604
4.0690274 0.17361894 2.6379604
4.0773282 0.19185892 2.6379604
4.0875859 0.20944194 2.6379604
4.0997143 0.22605963 2.6379604
4.1135635 0.24142136 2.6379604
4.1289253 0.25527063 2.6379604
4.1455431 0.2673991 2.6379604
4.163126 0.27765679 2.6379604
4.181366 0.28595766 2.6379604
4.1999536 0.29227978 2.6379604
4.2185926 0.29666108 2.6379604
4.2370143 0.29919097 2.6379604
4.0548139 0.15208514 2.5026188
4.0273671 0.1249608 2.3647907
4.0495052 0.1249608 2.503175
4.054822 0.1249608 2.571152
4.0482764 0.11144979 2.503304
4.0535879 0.11144979 2.5712159
4.0601521 0.15208514 2.5708761
4.0516777 0.13853878 2.5029473
4.0570035 0.13853878 2.5710392
4.0742998 0.19947684 2.5005767
4.0406299 0.17631553 2.3619242
4.0630002 0.17631553 2.501761
4.0683727 0.17631553 2.570451
4.0585089 0.16429517 2.5022316
4.0638623 0.16429517 2.5706842
4.0797186 0.19947684 2.569864
4.0682726 0.18806811 2.5012083
4.0736666 0.18806811 2.5701771
4.1056991 0.24090603 2.4972861
4.0659084 0.22131482 2.356461
4.0887213 0.22131482 2.4990654
4.0942001 0.22131482 2.5691149
4.0811625 0.21064602 2.4998574
4.0866098 0.21064602 2.5695076
4.111248 0.24090603 2.568233
4.096921 0.23141986 2.4982059
4.1024337 0.23141986 2.5686889
4.1468601 0.27288723 2.4929724
4.1020613 0.25846648 2.3486478
4.1255074 0.25846648 2.4952102
4.1311383 0.25846648 2.567204
4.1153679 0.25006592 2.4962728
4.1209569 0.25006592 2.5677307
4.1525788 0.27288723 2.5660949
4.1360331 0.26607919 2.494107
4.1417074 0.26607919 2.5666573
4.1957293 0.2932792 2.4878509
4.1460733 0.28458771 2.3391361
4.1702905 0.28458771 2.4905169
4.1761065 0.28458771 2.5648777
4.1582932 0.27907994 2.4917741
4.1640596 0.27907994 2.565501
4.2016501 0.2932792 2.5635562
4.1827927 0.28934148 2.4892066
4.1886601 0.28934148 2.5642283
4.195879 0.29829836 2.328372
4.2209687 0.29829836 2.4852059
4.226994 0.29829836 2.5622451
4.2082281 0.29619154 2.486541
4.214201 0.29619154 2.562907
4.2338734 0.29957321 2.4838533
4.2399521 0.29957321 2.5615749
4.228467 0.29829836 2.6002855
4.2414379 0.29957321 2.599952
4.2334576 0.29904103 2.5619109
4.2349367 0.29904103 2.6001191
4.2464671 0.29989323 2.5612378
4.2479596 0.29989323 2.5997841
4.2489514 0.30000001 2.5039332
4.2300835 0.30000001 2.3665438
4.1974077 0.30000001 2.2275336
4.1502571 0.30000001 2.0889089
4.0883489 0.30000001 1.9528749
4.011847 0.30000001 1.8217403
3.9213927 0.30000001 1.6978054
3.8181043 0.30000001 1.5832373
3.7035363 0.30000001 1.4799491
3.5796013 0.30000001 1.3894948
3.4484668 0.30000001 1.3129926
3.3124325 0.30000001 1.2510847
3.1738081 0.30000001 1.2039341
3.0347979 0.30000001 1.1712583
2.8974082 0.30000001 1.1523902
2.763381 0.30000001 1.1463566
2.6003947 0.30000001 1.1552881
2.4629822 0.1 1.3817754
2.577071 0.1 1.3598646
2.6965764 0.1 1.3480854
2.8202274 0.1 1.3476082
2.9464686 0.1 1.359399
3.0735004 0.1 1.3841397
3.1993451 0.1 1.4221579
3.3219366 0.1 1.4733763
3.439224 0.1 1.5372893
3.5492835 0.1 1.6129737
3.6504211 0.1 1.6991311
3.7412586 0.1 1.7941618
3.820792 0.1 1.8962579
3.8884189 0.1 2.0035076
3.9439332 0.1 2.1139972
3.9874928 0.1 2.2259028
4.0195661 0.1 2.3375616
4.0457339 0.1 2.4836483
4.0531893 -0.1 2.7060423
2.4629822 -0.1 1.3817754
4.0531893 0.1 2.7060423
2.4629822 0.1 1.3817754
4.0539751 0.1 2.6890323
4.0545359 0.1 2.6720123
4.054873 0.1 2.6549869
4.054985 0.1 2.6379604
4.0406833 3.3002974e-16 2.4462838
4.0533915 3.4867675e-16 2.5738194
4.0533915 0.050000001 2.5738194
4.0549841 3.4642647e-16 2.6394563
4.0549841 0.050000001 2.6394563
4.0549841 0.075000003 2.6394563
4.0545192 0.050000001 2.6726458
4.0545192 0.075000003 2.6726458
4.0533915 0.075000003 2.5738194
4.0546021 0.050000001 2.6065042
4.0546021 0.075000003 2.6065042
4.0406833 0.050000001 2.4462838
4.0485668 3.4307982e-16 2.5093601
4.0485668 0.050000001 2.5093601
2.4629822 2.7755576e-16 1.3817754
4.0457339 0.1 2.4836483
4.0195661 0.1 2.3375616
3.9874928 0.1 2.2259028
3.9439332 0.1 2.1139972
3.8884189 0.1 2.0035076
3.820792 0.1 1.8962579
3.7412586 0.1 1.7941618
3.6504211 0.1 1.6991311
3.5492835 0.1 1.6129737
3.439224 0.1 1.5372893
3.3219366 0.1 1.4733763
3.1993451 0.1 1.4221579
3.0735004 0.1 1.3841397
2.9464686 0.1 1.359399
2.8202274 0.1 1.3476082
2.6965764 0.1 1.3480854
2.577071 0.1 1.3598646
4.054985 -0.1 2.6379604
4.054873 -0.1 2.6549869
4.0545359 -0.1 2.6720123
4.0539751 -0.1 2.6890323
4.0533915 -0.050000001 2.5738194
4.0549841 -0.050000001 2.6394563
4.0546021 -0.050000001 2.6065042
4.0533915 -0.075000003 2.5738194
4.0549841 -0.075000003 2.6394563
4.0546021 -0.075000003 2.6065042
4.0406833 -0.050000001 2.4462838
4.0485668 -0.050000001 2.5093601
4.0545192 -0.050000001 2.6726458
4.0545192 -0.075000003 2.6726458
2.6152143 -0.1 1.3548833
2.763381 -0.1 1.3463566
2.8794374 -0.1 1.3515812
2.9984052 -0.1 1.3679194
3.1187766 -0.1 1.3962139
3.2388136 -0.1 1.4370424
3.3566079 -0.1 1.4906495
3.4701593 -0.1 1.5568938
3.5774767 -0.1 1.6352197
3.6766829 -0.1 1.7246586
3.7661219 -0.1 1.8238651
3.8444479 -0.1 1.9311823
3.9106922 -0.1 2.0447338
3.9642994 -0.1 2.162528
4.0051279 -0.1 2.2825651
4.033422 -0.1 2.4029365
4.0497603 -0.1 2.5219042
2.4274099 0.1 1.3908181
2.4296496 0.025010247 1.3902169
2.4274099 -0.1 1.3908181
2.4629822 -0.1 1.3817754
2.4629822 2.7755576e-16 1.3817754
2.4629822 0.1 1.3817754
2.2559958 6.1985252e-16 5.8543258
0 2.2559958 5.8543258
-2.2559958 2.7747211e-16 5.8543258
2.0963845 0.85601586 4.4410424
1.8914305 1.2450228 4.4410424
1.6093346 1.592995 4.4410424
1.2705829 1.8743559 4.4410424
0.87833297 2.0871325 4.4410424
0.44537041 2.2201884 4.4410424
0 2.2644186 4.4410424
-0.45414245 2.2184107 4.4410424
-0.85601586 2.0963845 4.4410424
-1.2450228 1.8914305 4.4410424
-1.592995 1.6093346 4.4410424
-1.8743559 1.2705829 4.4410424
-2.0871325 0.87833297 4.4410424
-2.2201884 0.44537041 4.4410424
2.2266622 0.45583168 3.0277591
2.1041822 0.85919994 3.0277591
1.8984659 1.2496538 3.0277591
1.6153207 1.5989203 3.0277591
1.275309 1.8813277 3.0277591
0.88160002 2.0948958 3.0277591
0.44702703 2.2284465 3.0277591
0 2.2728412 3.0277591
-0.45583168 2.2266622 3.0277591
-0.85919994 2.1041822 3.0277591
-1.2496538 1.8984659 3.0277591
-1.5989203 1.6153207 3.0277591
-1.8813277 1.275309 3.0277591
-2.0948958 0.88160002 3.0277591
-2.2284465 0.44702703 3.0277591
-2.2728412 1.0233761e-16 3.0277591
2.2349138 0.4575209 1.6144755
2.11198 0.86238396 1.6144755
1.9055012 1.2542847 1.6144755
1.6213068 1.6048458 1.6144755
1.2800351 1.8882997 1.6144755
0.88486707 2.1026592 1.6144755
0.44868362 2.2367048 1.6144755
0 2.2812641 1.6144755
-0.4575209 2.2349138 1.6144755
-0.86238396 2.11198 1.6144755
-1.2542847 1.9055012 1.6144755
-1.6048458 1.6213068 1.6144755
-1.8882997 1.2800351 1.6144755
-2.1026592 0.88486707 1.6144755
-2.2367048 0.44868362 1.6144755
2.2896867 1.548626e-16 0.20119192
8.8817842e-16 2.2896867 0.20119192
-2.2896867 -7.2796903e-17 0.20119192
2.2795999 0.091940336 1.5827415
2.2769992 0.14279659 1.5795257
2.2737226 0.18858112 1.5699104
2.2697356 0.23260784 1.5541388
2.2664711 0.26329809 1.5388763
2.262979 0.29265624 1.5204847
2.2584534 0.32687339 1.4934099
2.2545922 0.35354006 1.4670069
2.250849 0.37769061 1.4377339
2.2473423 0.39911518 1.4058279
2.2434103 0.4220742 1.3618467
2.2403109 0.4396728 1.3152595
2.2379663 0.45313382 1.2594389
2.2370503 0.45963046 1.1922113
2.2370884 0.45974043 1.1822156
2.2390397 0.45836553 0.9078337
2.2700613 0.22580314 1.6144755
2.230788 0.4566763 2.3211172
2.2616799 0.22496943 3.0277591
2.2658706 0.22538629 2.3211172
2.267966 0.22559471 1.9677963
2.2743087 0.11175417 2.3211172
2.2764118 0.11185752 1.9677963
2.2369769 0.45794323 1.2611545
2.2556136 0.3411347 1.6144755
2.1158788 0.863976 0.9078337
2.183569 0.66044837 1.6144755
2.1875999 0.66166759 0.9078337
2.2636037 0.28330895 1.6144755
2.232851 0.4570986 1.9677963
2.2514496 0.34050494 2.3211172
2.2535315 0.34081984 1.9677963
2.1080811 0.86079192 2.3211172
2.1755068 0.65800989 3.0277591
2.179538 0.6592291 2.3211172
2.2670219 0.25451267 1.6144755
2.2545726 0.34097728 1.7911359
2.2615142 0.28304744 1.9677963
2.2690136 0.22569892 1.7911359
2.2625589 0.28317821 1.7911359
2.256134 0.34121343 1.5261452
2.2598021 0.31218526 1.6144755
2.2603235 0.31225729 1.5261452
2.2359455 0.45773205 1.437815
2.2460599 0.39922476 1.6144755
2.2470965 0.399409 1.437815
2.2158155 0.55996388 0.9078337
2.1855845 0.66105795 1.2611545
2.2117324 0.55893201 1.6144755
2.213774 0.55944794 1.2611545
2.2465782 0.39931688 1.5261452
2.251034 0.37015027 1.6144755
2.2515535 0.37023568 1.5261452
2.2338824 0.45730975 1.7911359
2.2439866 0.39885625 1.9677963
2.2450233 0.39904049 1.7911359
2.1815534 0.65983874 1.9677963
2.2076495 0.55790019 2.3211172
2.209691 0.55841613 1.9677963
2.2411027 0.45878783 0.5545128
2.2763474 0.2264284 0.5545128
2.2618597 0.34207934 0.5545128
2.228045 0.5091303 0.9078337
2.2147946 0.55970591 1.0844941
2.2259922 0.50866121 1.2611545
2.2270186 0.50889575 1.0844941
2.1896155 0.66227722 0.5545128
2.2178569 0.56047976 0.5545128
2.2326667 0.48351389 1.0844941
2.2265053 0.50877851 1.1728244
2.2316377 0.48329106 1.2611545
2.2321522 0.48340246 1.1728244
2.2127533 0.55918998 1.437815
2.2239394 0.50819212 1.6144755
2.2249658 0.50842667 1.437815
2.2348607 0.47072253 1.1728244
2.231895 0.48334676 1.2169894
2.2343454 0.47061402 1.2611545
2.2372346 0.45799601 1.2169894
2.2346029 0.47066826 1.2169894
2.2254789 0.50854397 1.3494848
2.2306087 0.4830682 1.437815
2.2364612 0.45783764 1.3494848
2.2311232 0.48317963 1.3494848
2.236186 0.46438482 1.1728244
2.2347319 0.47069541 1.1949069
2.2359283 0.46433133 1.2169894
2.2360573 0.46435809 1.1949069
2.2417219 0.42854849 1.437815
2.2353756 0.47083101 1.0844941
2.2324095 0.48345819 1.1286592
2.2351182 0.47077677 1.1286592
2.2336957 0.48373672 0.9078337
2.2275317 0.50901306 0.9961639
2.238524 0.45825994 0.9961639
2.2331812 0.48362532 0.9961639
2.2300978 0.50959939 0.5545128
2.2168362 0.56022179 0.73117322
2.2400711 0.45857668 0.73117322
2.2290714 0.50936484 0.73117322
2.2372756 0.45974341 1.1513578
2.237643 0.45974925 1.0907849
2.2387464 0.45588511 1.0394132
2.2403038 0.44917601 1.0061603
2.2427857 0.43775037 0.96980184
2.245935 0.42240676 0.93523639
2.2506354 0.39797345 0.89517009
2.253865 0.38006938 0.87248743
2.2572386 0.3602744 0.85180026
2.2606971 0.3386429 0.83321708
2.2640746 0.31595436 0.81736177
2.2673624 0.29205182 0.80401719
2.2717059 0.25684115 0.78975165
2.2756305 0.21991652 0.78087544
2.2788415 0.18391179 0.7777397
2.2522795 0.40033025 0.5545128
2.2608187 0.3419219 0.73117322
2.2512429 0.40014601 0.73117322
2.2562284 0.37100443 0.73117322
2.2507246 0.40005386 0.81950349
2.2557092 0.37091902 0.81950349
2.2698717 0.28409347 0.5545128
2.2752998 0.2263242 0.73117322
2.2688272 0.28396273 0.73117322
2.2848244 0.11227089 0.5545128
2.2650168 0.31290567 0.73117322
2.2722533 0.25509998 0.73117322
2.2813196 0.16913737 0.5545128
2.2837727 0.11221922 0.73117322
2.2802699 0.16905953 0.73117322
2.2779703 0.19764191 0.73117322
2.286258 -2.0130916e-16 0.77652043
-2.2840717 -1.4418731e-17 1.1433809
-2.2784564 4.3959438e-17 2.0855699
-2.267226 1.6071578e-16 3.9699481
-2.261611 2.1909395e-16 4.912137
2.2601001 3.6129804e-16 5.1656237
2.2582335 0.092030913 5.1643243
2.2526503 0.18374097 5.1604085
2.2142849 0.45329782 5.1476841
2.2470124 0.22351046 5.5010052
2.2553802 0.11082408 5.5010052
2.249675 0.21725354 5.1555104
2.2463343 0.24981223 5.1451578
2.2427759 0.2807554 5.1300616
2.2391481 0.30942136 5.1109328
2.2355852 0.33528036 5.0884495
2.2321649 0.35833037 5.0631571
2.2289517 0.37870127 5.0355687
2.2260094 0.39652294 5.0061975
2.2211294 0.42498606 4.9437375
2.2177086 0.44449866 4.8777838
2.2158384 0.45576438 4.809845
2.2155027 0.45939368 4.7411203
2.2480602 0.22361468 5.3243446
2.2519207 0.16695774 5.5010052
2.2564318 0.11087575 5.3243446
2.2529707 0.16703558 5.3243446
2.2225366 0.45498705 3.7344007
2.2574892 0.22455259 3.7344007
2.2347934 0.3379859 5.1476841
2.2122219 0.45287552 5.5010052
2.2327116 0.33767104 5.5010052
2.1674449 0.6555714 4.4410424
2.0924857 0.85442388 5.1476841
2.1634138 0.65435219 5.1476841
2.248584 0.22366679 5.2360144
2.2506988 0.19527577 5.3243446
2.2534957 0.1670745 5.2360144
2.2512233 0.19532128 5.2360144
2.2337525 0.33782849 5.3243446
2.2406204 0.2804324 5.5010052
2.2416651 0.28056315 5.3243446
2.2153163 0.45350897 4.9710236
2.225328 0.39553976 5.1476841
2.1954005 0.55480468 4.4410424
2.1654294 0.65496176 4.7943635
2.1913173 0.55377287 5.1476841
2.1933589 0.5542888 4.7943635
2.1002834 0.8576079 3.7344007
2.1714759 0.65679067 3.7344007
2.2258463 0.39563188 5.0593538
2.2302561 0.36673364 5.1476841
2.2132533 0.45308667 5.3243446
2.2232547 0.39517125 5.5010052
2.2242913 0.39535552 5.3243446
2.1613984 0.65374255 5.5010052
2.189276 0.55325699 5.5010052
2.2148006 0.45340341 5.0593538
2.2200053 0.42439696 5.1476841
2.2205224 0.42449582 5.0593538
2.2054644 0.50397044 4.7943635
2.1923382 0.55403084 4.9710236
2.2034116 0.50350136 5.1476841
2.204438 0.5037359 4.9710236
2.2075171 0.50443953 4.4410424
2.1943796 0.55454677 4.617703
2.2064908 0.50420499 4.617703
2.1994834 0.55583656 3.7344007
2.1694603 0.65618104 4.0877218
2.2204735 0.45456475 4.0877218
2.1974418 0.55532062 4.0877218
2.2157726 0.45939803 4.6966462
2.2160423 0.45940241 4.6521721
2.2163122 0.45940679 4.6076975
2.2163393 0.45939907 4.603498
2.2131159 0.47927991 4.4410424
2.2070038 0.50432223 4.5293727
2.2120869 0.47905704 4.617703
2.2126014 0.47916847 4.5293727
2.2431214 0.33924544 3.7344007
2.2410395 0.33893055 4.0877218
2.2095699 0.50490856 4.0877218
2.1964211 0.55506265 4.2643819
2.2194421 0.4543536 4.2643819
2.2085435 0.50467408 4.2643819
2.215286 0.46659958 4.5293727
2.2123442 0.47911277 4.5735378
2.2147708 0.46649107 4.617703
2.2150285 0.46654534 4.5735378
2.2059774 0.50408769 4.7060332
2.2110579 0.47883421 4.7943635
2.2115724 0.47894564 4.7060332
2.2315476 0.39664525 4.0877218
2.2163422 0.46026391 4.5735378
2.2148998 0.46651822 4.5956202
2.2160845 0.46021038 4.617703
2.2162135 0.46023715 4.5956202
2.2118297 0.47900134 4.6618681
2.2142558 0.46638259 4.7060332
2.2145133 0.46643683 4.6618681
2.2161489 0.46022376 4.6066618
2.214642 0.46646395 4.6397853
2.2159557 0.46018362 4.6397853
2.2168772 0.45820147 4.556459
2.2178516 0.45487642 4.5094843
2.2192717 0.44929448 4.462729
2.2211459 0.44132617 4.4163465
2.2234809 0.43082649 4.3705072
2.2262716 0.41758817 4.3254366
2.2295101 0.40138841 4.2813764
2.2331884 0.38200435 4.2385669
2.237277 0.35918885 4.1973739
2.2416604 0.3325974 4.1586595
2.2462003 0.30186105 4.1234102
2.2507596 0.26661092 4.0926132
2.2551775 0.22677183 4.0672779
2.2592025 0.18344347 4.0485058
2.2609816 0.16090626 4.0419316
2.2625594 0.13801925 4.0374203
2.2639019 0.11495663 4.0351114
2.2649741 0.091892585 4.0351458
2.2658961 0.1113408 3.7344007
2.2510674 0.28173992 3.7344007
2.2420805 0.33908799 3.911061
2.2564416 0.22444837 3.911061
2.2500226 0.28160918 3.911061
2.2472856 0.33987519 3.0277591
2.2245994 0.45540938 3.3810799
2.2595847 0.22476101 3.3810799
2.2452035 0.3395603 3.3810799
2.2624204 0.16773617 3.7344007
2.2648444 0.11128912 3.911061
2.2613704 0.16765833 3.911061
2.2701023 0.11154748 3.0277591
2.2679992 0.11144414 3.3810799
2.2590902 0.19600381 3.911061
2.2559178 0.22439627 3.9993913
2.2608454 0.16761941 3.9993913
2.2585657 0.19595832 3.9993913
2.2632871 0.1394181 3.911061
2.2643187 0.11126329 3.9993913
2.2627616 0.13938573 3.9993913
2.2679529 0.055413857 3.7344007
2.2669005 0.055388138 3.911061
2.2660472 0.083277248 3.911061
2.2663741 0.055375282 3.9993913
2.2655213 0.083257914 3.9993913
2.2668226 2.2335607e-18 4.0376468
2.2717006 -4.2771078e-17 3.2191644
2.2765784 -9.3821412e-17 2.400682
2.2814565 -1.510228e-16 1.5821997
2.2854493 0.060711153 0.77692682
2.2868986 0.055876762 0.5545128
2.285846 0.055851042 0.73117322
2.2895465 0.025354946 0.20119192
2.2891226 0.050821759 0.20119192
2.2884119 0.076396421 0.20119192
2.2874103 0.10207479 0.20119192
2.2861145 0.12785262 0.20119192
2.2845206 0.15372553 0.20119192
2.2826252 0.17968903 0.20119192
2.2804248 0.20573851 0.20119192
2.2779162 0.23186925 0.20119192
2.2750962 0.25807637 0.20119192
2.2719612 0.28435498 0.20119192
2.2685084 0.31069994 0.20119192
2.264735 0.33710611 0.20119192
2.260638 0.36356819 0.20119192
2.2562141 0.39008078 0.20119192
2.2514613 0.4166384 0.20119192
2.2463765 0.4432354 0.20119192
2.2409577 0.4698661 0.20119192
2.2352021 0.49652469 0.20119192
2.2291079 0.52320522 0.20119192
2.2226727 0.54990178 0.20119192
2.2158945 0.57660824 0.20119192
2.2087717 0.60331845 0.20119192
2.2013025 0.6300261 0.20119192
2.1934853 0.65672493 0.20119192
2.1853187 0.6834085 0.20119192
2.1768017 0.71007025 0.20119192
2.167933 0.73670375 0.20119192
2.1587114 0.76330233 0.20119192
2.1491365 0.78985935 0.20119192
2.1392076 0.81636798 0.20119192
2.1289239 0.8428216 0.20119192
2.1182857 0.86921322 0.20119192
2.1072922 0.89553612 0.20119192
2.0959439 0.92178333 0.20119192
2.0842409 0.94794792 0.20119192
2.0721836 0.97402292 0.20119192
2.0597725 1.0000014 0.20119192
2.0470083 1.0258763 0.20119192
2.0338922 1.0516407 0.20119192
2.0204248 1.0772877 0.20119192
2.006608 1.10281 0.20119192
1.9924428 1.1282008 0.20119192
1.977931 1.1534531 0.20119192
1.9630746 1.17856 0.20119192
1.9478753 1.2035146 0.20119192
1.9323355 1.2283099 0.20119192
1.9164575 1.252939 0.20119192
1.900244 1.2773951 0.20119192
1.8836976 1.3016715 0.20119192
1.8668213 1.3257616 0.20119192
1.8496182 1.3496585 0.20119192
1.8320915 1.3733559 0.20119192
1.8142447 1.396847 0.20119192
1.7960815 1.4201256 0.20119192
1.7776057 1.4431853 0.20119192
1.758821 1.4660197 0.20119192
1.7397319 1.4886229 0.20119192
1.7203425 1.5109887 0.20119192
1.7006574 1.5331112 0.20119192
1.680681 1.5549846 0.20119192
1.6604182 1.5766031 0.20119192
1.6398739 1.5979609 0.20119192
1.619053 1.619053 0.20119192
1.5979609 1.6398739 0.20119192
1.5766031 1.6604182 0.20119192
1.5549846 1.680681 0.20119192
1.5331112 1.7006574 0.20119192
1.5109887 1.7203425 0.20119192
1.4886229 1.7397319 0.20119192
1.4660197 1.758821 0.20119192
1.4431853 1.7776057 0.20119192
1.4201256 1.7960815 0.20119192
1.396847 1.8142447 0.20119192
1.3733559 1.8320915 0.20119192
1.3496585 1.8496182 0.20119192
1.3257616 1.8668213 0.20119192
1.3016715 1.8836976 0.20119192
1.2773951 1.900244 0.20119192
1.252939 1.9164575 0.20119192
1.2283099 1.9323355 0.20119192
1.2035146 1.9478753 0.20119192
1.17856 1.9630746 0.20119192
1.1534531 1.977931 0.20119192
1.1282008 1.9924428 0.20119192
1.10281 2.006608 0.20119192
1.0772877 2.0204248 0.20119192
1.0516407 2.0338922 0.20119192
1.0258763 2.0470083 0.20119192
1.0000014 2.0597725 0.20119192
0.97402292 2.0721836 0.20119192
0.94794792 2.0842409 0.20119192
0.92178333 2.0959439 0.20119192
0.89553612 2.1072922 0.20119192
0.86921322 2.1182857 0.20119192
0.8428216 2.1289239 0.20119192
0.81636798 2.1392076 0.20119192
0.78985935 2.1491365 0.20119192
0.76330233 2.1587114 0.20119192
0.73670375 2.167933 0.20119192
0.71007025 2.1768017 0.20119192
0.6834085 2.1853187 0.20119192
0.65672493 2.1934853 0.20119192
0.6300261 2.2013025 0.20119192
0.60331845 2.2087717 0.20119192
0.57660824 2.2158945 0.20119192
0.54990178 2.2226727 0.20119192
0.52320522 2.2291079 0.20119192
0.49652469 2.2352021 0.20119192
0.4698661 2.2409577 0.20119192
0.4432354 2.2463765 0.20119192
0.4166384 2.2514613 0.20119192
0.39008078 2.2562141 0.20119192
0.36356819 2.260638 0.20119192
0.33710611 2.264735 0.20119192
0.31069994 2.2685084 0.20119192
0.28435498 2.2719612 0.20119192
0.25807637 2.2750962 0.20119192
0.23186925 2.2779162 0.20119192
0.20573851 2.2804248 0.20119192
0.17968903 2.2826252 0.20119192
0.15372553 2.2845206 0.20119192
0.12785262 2.2861145 0.20119192
0.10207479 2.2874103 0.20119192
0.076396421 2.2884119 0.20119192
0.050821759 2.2891226 0.20119192
0.025354946 2.2895465 0.20119192
2.285876 0.11232256 0.37785235
2.287951 0.055902477 0.37785235
2.2884774 0.055915337 0.28952214
2.2884641 0.027883831 0.37785235
2.2889905 0.027890244 0.28952214
2.2864017 0.1123484 0.28952214
2.2870901 0.084050566 0.37785235
2.287616 0.0840699 0.28952214
2.277395 0.22653262 0.37785235
2.2823696 0.16921522 0.37785235
2.2828946 0.16925414 0.28952214
2.2843041 0.14071274 0.37785235
2.2848296 0.1407451 0.28952214
2.2779188 0.22658473 0.28952214
2.2800682 0.19782393 0.37785235
2.2805927 0.19786942 0.28952214
2.2629006 0.34223679 0.37785235
2.2709165 0.28422421 0.37785235
2.2714388 0.2842896 0.28952214
2.2743459 0.25533491 0.37785235
2.274869 0.25539365 0.28952214
2.2634211 0.3423155 0.28952214
2.2671027 0.31319383 0.37785235
2.2676241 0.31326586 0.28952214
2.2421341 0.45899898 0.37785235
2.2533162 0.40051448 0.37785235
2.2538345 0.40060663 0.28952214
2.2583063 0.37134609 0.37785235
2.2588258 0.3714315 0.28952214
2.2426498 0.45910457 0.28952214
2.2479265 0.42973465 0.37785235
2.2484436 0.42983347 0.28952214
2.2188778 0.56073773 0.37785235
2.2311242 0.50983393 0.37785235
2.2316372 0.50995117 0.28952214
2.2367828 0.48440525 0.37785235
2.2372973 0.48451668 0.28952214
2.219388 0.56086671 0.28952214
2.2251563 0.53527981 0.37785235
2.2256682 0.53540295 0.28952214
2.1906233 0.66258204 0.37785235
2.2043669 0.61138684 0.5545128
2.2053814 0.61166817 0.37785235
2.1178284 0.86477202 0.5545128
2.1543062 0.76312667 0.9078337
2.156291 0.76382977 0.5545128
1.909019 1.2566003 0.9078337
2.0190372 1.0619107 1.6144755
2.0227644 1.0638711 0.9078337
2.2058887 0.6118089 0.28952214
2.2122867 0.58620232 0.37785235
2.2127955 0.58633715 0.28952214
2.1911271 0.66273439 0.28952214
2.1981606 0.63712996 0.37785235
2.1986663 0.63727647 0.28952214
2.1572835 0.76418126 0.37785235
2.1735928 0.71310663 0.5545128
2.1745932 0.71343482 0.37785235
2.1750934 0.71359891 0.28952214
2.1827679 0.68801886 0.37785235
2.18327 0.68817711 0.28952214
2.1577797 0.76435703 0.28952214
2.1660988 0.73882419 0.37785235
2.1665971 0.73899412 0.28952214
2.118803 0.86517 0.37785235
2.1377041 0.81440049 0.5545128
2.1386881 0.81477529 0.37785235
2.0246282 1.0648513 0.5545128
2.0719323 0.96462113 0.9078337
2.0738413 0.96550989 0.5545128
2.1391799 0.81496274 0.28952214
2.1481469 0.78950024 0.37785235
2.1486409 0.78968185 0.28952214
2.1192904 0.86536902 0.28952214
2.1289067 0.84000051 0.37785235
2.1293964 0.84019375 0.28952214
2.0747957 0.96595424 0.37785235
2.0964899 0.91529077 0.5545128
2.0974548 0.915712 0.37785235
2.0979373 0.91592264 0.28952214
2.1082928 0.89047539 0.37785235
2.1087778 0.89068025 0.28952214
2.075273 0.96617645 0.28952214
2.0862889 0.94087368 0.37785235
2.0867689 0.94109011 0.28952214
2.0255599 1.0653414 0.37785235
2.0498855 1.0153799 0.5545128
2.0508289 1.0158472 0.37785235
1.9107778 1.257758 0.5545128
1.9684289 1.1613293 0.9078337
1.9702424 1.1623993 0.5545128
1.6242999 1.6078084 0.9078337
1.7724621 1.4361558 1.6144755
1.7757342 1.4388071 0.9078337
2.0513008 1.016081 0.28952214
2.0629756 0.99094748 0.37785235
2.0634501 0.99117541 0.28952214
2.0260258 1.0655864 0.28952214
2.0383568 1.0406473 0.37785235
2.0388258 1.0408866 0.28952214
1.9711492 1.1629343 0.37785235
1.9980769 1.1138743 0.5545128
1.9989965 1.1143869 0.37785235
1.9994563 1.1146433 0.28952214
2.0124395 1.0899234 0.37785235
2.0129023 1.0901741 0.28952214
1.9716026 1.1632018 0.28952214
1.9852326 1.138726 0.37785235
1.9856892 1.1389879 0.28952214
1.9116572 1.2583369 0.37785235
1.9411376 1.2103769 0.5545128
1.9420309 1.2109339 0.37785235
1.7773702 1.4401327 0.5545128
1.8447547 1.3491768 0.9078337
1.8464543 1.3504198 0.5545128
1.9424777 1.2112125 0.28952214
1.956748 1.1870056 0.37785235
1.9571981 1.1872786 0.28952214
1.912097 1.2586263 0.28952214
1.9269999 1.2347131 0.37785235
1.9274433 1.234997 0.28952214
1.8473041 1.3510413 0.37785235
1.8792228 1.3044343 0.5545128
1.8800877 1.3050346 0.37785235
1.8805201 1.3053348 0.28952214
1.8960255 1.2817692 0.37785235
1.8964617 1.2820641 0.28952214
1.8477291 1.3513521 0.28952214
1.8638463 1.3281273 0.37785235
1.864275 1.3284328 0.28952214
1.7781882 1.4407955 0.37785235
1.8124951 1.3956678 0.5545128
1.8133293 1.3963102 0.37785235
1.6257963 1.6092898 0.5545128
1.7021674 1.5251309 0.9078337
1.7037356 1.526536 0.5545128
1.2823981 1.8917856 0.9078337
1.4571928 1.7552079 1.6144755
1.4598829 1.7584481 0.9078337
1.8137463 1.3966314 0.28952214
1.8304641 1.3737708 0.37785235
1.8308852 1.3740869 0.28952214
1.7785972 1.4411269 0.28952214
1.7959028 1.4186536 0.37785235
1.7963159 1.4189799 0.28952214
1.7045197 1.5272386 0.37785235
1.7411072 1.4837699 0.5545128
1.7419086 1.4844527 0.37785235
1.7423092 1.4847941 0.28952214
1.7601889 1.4627304 0.37785235
1.7605938 1.4630668 0.28952214
1.7049118 1.5275899 0.28952214
1.7233508 1.5059572 0.37785235
1.7237473 1.5063037 0.28952214
1.6265446 1.6100304 0.37785235
1.6652874 1.5683894 0.5545128
1.6660538 1.5691112 0.37785235
1.4612279 1.7600683 0.5545128
1.5438858 1.6851749 0.9078337
1.5453082 1.6867275 0.5545128
1.666437 1.5694721 0.28952214
1.6854193 1.5482916 0.37785235
1.685807 1.5486478 0.28952214
1.6269188 1.6104007 0.28952214
1.6464274 1.5896925 0.37785235
1.6468061 1.5900581 0.28952214
1.5460194 1.6875038 0.37785235
1.5860202 1.6485045 0.5545128
1.5867501 1.6492631 0.37785235
1.5871152 1.6496426 0.28952214
1.6067667 1.6297687 0.37785235
1.6071362 1.6301435 0.28952214
1.546375 1.687892 0.28952214
1.5664996 1.6685096 0.37785235
1.5668598 1.6688935 0.28952214
1.4619004 1.7608783 0.37785235
1.5036978 1.7239258 0.5545128
1.5043899 1.7247193 0.37785235
1.2835797 1.8935286 0.5545128
1.3726079 1.8273876 0.9078337
1.3738725 1.8290712 0.5545128
0.8865006 2.1065409 0.9078337
1.0863239 2.0060074 1.6144755
1.0883293 2.0097108 0.9078337
1.5047358 1.7251159 0.28952214
1.5253146 1.7062416 0.37785235
1.5256654 1.7066342 0.28952214
1.4622366 1.7612834 0.28952214
1.4832501 1.7429327 0.37785235
1.4835913 1.7433336 0.28952214
1.3745048 1.829913 0.37785235
1.4179389 1.7951257 0.5545128
1.4185915 1.795952 0.37785235
1.4189178 1.796365 0.28952214
1.4403458 1.7785525 0.37785235
1.4406772 1.7789617 0.28952214
1.3748209 1.8303339 0.28952214
1.3966428 1.8130732 0.37785235
1.396964 1.8134902 0.28952214
1.2841704 1.8944001 0.37785235
1.3290715 1.8618797 0.5545128
1.3296832 1.8627367 0.37785235
1.089332 2.0115623 0.5545128
1.1865391 1.9533364 0.9078337
1.1876322 1.9551361 0.5545128
1.3299891 1.8631651 0.28952214
1.3521832 1.8464684 0.37785235
1.3524942 1.8468932 0.28952214
1.2844658 1.8948358 0.28952214
1.3070104 1.8787147 0.37785235
1.3073111 1.8791468 0.28952214
1.1881788 1.9560359 0.37785235
1.2359254 1.9249716 0.5545128
1.2364943 1.9258575 0.37785235
1.2367786 1.9263005 0.28952214
