# .PCD v0.7 - Point Cloud Data file format
VERSION 0.7
FIELDS x y z
SIZE 4 4 4
TYPE F F F
COUNT 1 1 1
WIDTH 1685
HEIGHT 1
VIEWPOINT 0 0 0 1 0 0 0
POINTS 1685
DATA ascii
32.13485 -17.700621 31.864454
32.125999 -19.58 30.811001
31.389942 -17.823999 25.011354
31.956291 -17.823999 28.569128
32.001999 -19.58 28.66
31.704 -19.58 26.525
31.029718 -17.823999 23.635826
31.211952 -17.823999 24.218184
30.431 -19.58 21.664
31.075001 -19.58 23.722
30.361477 -17.823999 21.4841
30.082508 -14.612093 21.413
30.173233 -14.396605 21.146999
30.110813 -14.751317 21.413
30.171631 -14.396421 21.146999
27.097832 -14.044168 21.146999
27.280756 -13.666095 20.677097
27.297659 -13.631162 20.633654
26.966999 -14.334 21.146999
25.780001 -16.396 21.146999
-5.7270708 10.967979 4.4033761
-5.5808949 10.968256 5.4933329
-5.5790129 10.969334 5.4927621
-5.7256031 10.968821 4.4029312
-5.0571971 11.13855 5.3345962
-4.8162451 11.216722 5.2607031
-4.4144979 11.345676 5.1709299
-6.8648882 10.316456 4.7481208
-7.1753802 10.137159 4.8626752
-6.4189029 10.572578 4.6028328
-6.631031 10.4515 4.6618409
-6.7059999 14.815 2.4430001
-6.7059999 12.366 2.4419999
-5.3210001 12.366 2.059
-5.3210001 14.815 2.059
-4.4174151 11.391816 4.0399141
-6.007 8.7989998 0.534051
-6.007 8.7989998 0.116
-5.3049998 9.3070002 0.117
-4.993217 9.4895725 0.54053998
-5.894928 8.8765802 0.534769
-15.145 12.886 56.049
-12.335 12.43 53.561001
-12.524 12.43 53.453999
-12.692 12.85 55.073002
-15.303 12.884 53.325001
-15.134 12.882 53.453999
-15.228 9.3149996 53.431
-15.185 9.3149996 53.460999
-12.751 9.2860003 56.825001
-12.747 9.5609999 56.717999
-12.709 11.842 55.638
10.820595 6.5357771 1.258962
10.059191 7.5007372 1.285472
11.771803 5.330276 1.225867
10.432859 7.2365131 2.502871
11.693 5.3299999 0.63999999
11.672 -11.612 0.63200003
-8.2089996 -9.7390003 26.370001
-8.2089996 -9.7390003 33.369999
16.542 28.497084 30.990799
16.563503 28.491148 30.777325
16.6092 28.478533 30.323673
16.542 28.497849 31.018509
16.542 28.455456 31.883974
16.542269 28.417738 32.653988
16.542 29.030001 31.530001
-8.1491776 8.6168575 54.415379
16.671864 28.818062 28.558176
16.580387 28.672001 27.664553
16.543911 28.61376 27.308228
16.601854 28.29944 27.891027
16.543871 28.231848 27.323559
16.651203 28.349974 28.374273
-8.1920004 5.5113411 54.389198
-8.1455021 5.58075 54.416965
16.542999 27.746161 24.579176
-8.118 5.6218042 54.42786
16.543591 28.613247 27.305096
16.543591 28.23152 27.320812
-8.118 6.0828161 54.427837
-8.1213274 6.0875831 54.426521
-8.1552696 6.1428008 54.411247
-8.1920004 6.2143698 54.389339
16.54298 28.61227 27.299122
16.542797 28.230595 27.313046
-8.1461582 6.1231551 54.416683
16.542795 27.791756 24.79818
16.542799 27.842636 25.042557
16.542398 28.499001 27.298073
16.542419 28.611376 27.29365
16.542347 28.230072 27.308655
16.54258 28.094309 26.193996
-8.3186331 6.461112 54.313812
16.542732 27.915474 25.392403
-8.3219995 5.3172841 54.311573
-8.3219995 6.4670968 54.311802
16.542044 26.938854 21.592232
16.542 26.886036 21.432098
16.542681 27.538689 23.582684
16.542473 27.35779 22.955482
16.54215 27.060642 21.988543
16.542999 28.153 24.414
-8.2913141 -8.1920004 54.327187
-8.3219995 -8.1457415 54.308884
-22.018999 8 45.813
-22.465 8 45.109001
-22.552 -15.825 40.848
-24.583832 7.9538012 41.646
-22.942612 8.2874689 38.744976
-22.898911 8.1920004 38.872478
-19.584999 -17.823999 38.214001
-18.947001 -17.823999 39.796001
-20.497 -17.823999 34.750999
-20.723 -17.823999 33.179001
19.25 -15.85 58.089001
-14.235 12.583 50.432999
18.504999 -15.849 52.011002
-13.442 12.583 51.226002
-13.442 12.583 52.426331
-19.186001 7.902 39.249001
-13.442 12.43 52.873001
-13.442 12.43 50.289001
-22.769018 7.8903661 39.251488
-22.715536 7.7340002 39.407627
-11.313 12.43 51.693001
-12.014 12.43 51.256001
-22.881927 8.1549025 38.922024
-22.793201 7.9610748 39.180882
-24.566 8 40.848
-15.666 12.583 50.609001
-15.659 12.583 50.608002
-15.401 12.583 52.723999
-15.963037 12.583 52.751614
-24.715 8.0439997 40.458
-15.946058 12.8922 52.753483
18.504999 -15.849 52.307053
18.504999 -16.110413 52.309002
18.504999 -15.257 52.873001
16.375 0.121 57.577999
16.375 1.545 57.455002
18.504999 -15.257 50.289001
16.375 5.5890002 56.764999
16.375 6.7709999 56.446999
16.375 6.0999999 54.423
13.483 5.171 54.68
13.985 4.2379999 54.889
19.264999 -17.01 56.049
19.422001 -17.000999 53.325001
19.253 -17.004999 53.453999
18.504999 -17.386999 52.011002
15.046 1.163 55.366001
18.504999 -17.386999 52.309002
18.504999 -17.386999 52.873001
14.806 2.1229999 55.251999
14.03 2.1029999 54.169998
-5.14715 9.3973112 0.53956199
-4.1900411 9.9709711 0.54567599
-4.2290001 9.9519997 0.116
18.504999 -17.386999 45.373001
18.504999 -14.626 45.373001
-5.2653441 9.3321505 0.53881401
-7.0631762 8.7989998 0.52768701
-8.1920004 8.7989683 0.52100903
-8.1057911 8.7989998 0.52151901
-21.223 -17.823999 40.848
-24.587999 7.9429998 40.898998
-23.706705 -17.129999 40.848
-18.271999 8.3319998 20.818001
-24.105112 -17.129999 40.848
-24.245247 -17.130236 40.848
-23.075157 8.1920004 23.120573
-22.190001 -16.396 40.848
-23.486725 8.3981209 18.760221
-23.400028 8.1920004 18.585123
-20.794001 -14.567 32.25
-20.833 -14.627 30.997
-19.226 7.9840002 22.85
-8.3219995 14.815 2.9890001
-8.3219995 12.366 2.99
16.375 2.786 57.314999
16.375 2.3429999 55.223999
-8.3219995 12.366 5.2719998
-8.3219995 9.429286 5.2719998
-8.3219995 10.521 5.2719998
-8.3219995 8.7989216 0.52024001
-8.3219995 8.7989998 0.116
-8.3219995 14.815 7.625
15.08 0.97299999 49.761002
14.884 1.847 49.646999
-8.3210001 -33.796001 40.339405
-8.321476 -33.796001 40.339024
-8.3219995 -33.796001 40.338608
-8.3210001 -33.796001 41.646999
10.098 -22.811001 21.289
14.16 3.8640001 49.235001
15.467 1.0650001 58.507999
14.982 2.651 58.284
9.9900808 -26.192099 21.196337
9.9906015 -26.192053 21.196222
9.075922 -25.931116 20.537991
-8.1920004 -9.0512505 54.386292
-8.1279449 -8.9226952 54.424545
-8.118 -8.9094582 54.428486
8.9991512 -25.908129 20.48
-8.1350889 -8.4275084 54.42038
-8.1920004 -8.3417158 54.386433
10.225332 -26.277987 21.413
-8.1285324 -8.4373932 54.424294
-8.118 -8.45327 54.428467
-16.306999 10.854355 46.971001
-13.442 10.377 46.382999
-13.442 11.799 45.373001
-10.671 12.89 45.373001
-10.673 11.799 45.373001
-9.4709997 10.587 46.244999
-16.306999 11.362 46.971001
-16.306999 11.362 44.201
-20.097 9.0159998 50.667
-18.584999 9.0159998 50.728001
-20.094999 9.0159998 50.667
-16.995001 9.0159998 50.702
-22.282 9.0159998 50.437
-20.431999 -13.948 26.924
-8.3219995 -9.31215 54.308651
-20.646 -14.313 28.216
-20.794001 -14.567 29.745001
19.896999 -15.062 44.201
19.896999 -15.062 46.971001
-23.812284 -13.572412 25.986593
-24.160511 -14.368786 28.473854
-24.093317 -14.196036 27.753122
-24.048111 -14.059216 27.268332
-24.0275 -13.990376 27.047321
-24.305992 -14.567467 30.035065
-24.262587 -14.545247 29.569117
-24.214724 -14.465406 29.055529
20.083 -15.849 50.432999
-24.254965 -14.595964 31.864832
-24.275764 -14.618975 31.384674
-24.285522 -14.621554 31.159266
21.507 -15.849 50.608002
21.514 -15.849 50.609001
-23.816999 -13.580869 26.006622
22.401016 -15.849 50.6745
22.396246 -15.143219 50.67313
-24.004881 -13.914826 26.804775
-23.99843 -13.906287 26.777374
-24.005009 -13.915257 26.80616
20.279119 -15.849 52.576626
21.981564 -15.849 51.063141
13.179 7.2020001 57.097
13.18 5.855 57.537998
13.906 4.8000002 57.824001
-22.970707 7.9955721 22.857044
14.553 20.764 31.466999
13.893 20.377001 26.924
14.387 20.664 28.857
14.176 20.544001 27.841
14.535 20.75 30.058001
-22.859921 7.7340002 22.577524
-22.969912 7.9940782 22.85504
13.353 20.076 25.556
-23.353792 8 18.426678
-24.566 8 18.590179
-24.566 8 17.153999
-23.209 8 18.181
-24.573931 7.979454 18.574961
-24.576 7.9735599 18.570568
-22.190001 8 16.452
21.136 -16.969 54.683998
22.785 -16.933001 53.296001
13.187468 22.516323 25.241499
13.225272 22.532747 25.311625
12.976 22.431768 24.879717
13.087649 22.4729 25.056335
13.63413 22.702526 26.278976
13.865229 22.751434 26.82638
13.966945 22.78124 27.152935
14.112419 22.824308 27.624506
14.258152 22.886518 28.294054
14.26166 22.888016 28.310167
14.359356 22.92972 28.759014
14.397546 22.946022 28.934473
14.444196 22.981813 29.313
20.258116 -16.982609 52.581905
14.4862 22.966005 29.653999
14.547449 22.933611 30.362608
14.558329 22.89513 31.228727
14.524228 22.86735 31.870558
14.45096 22.830023 32.743801
14.449347 22.829689 32.751999
23.255379 -17.478748 52.831749
23.230776 -17.286123 52.830803
21.645115 -16.954933 52.753139
20.966471 -16.968515 52.689434
22.744942 -16.932823 52.80698
23.224255 -16.935667 52.830551
23.224123 -16.923046 52.830437
-22.983 9.0159998 51.139
-20.246 9.1879997 48.402
30.097 -14.294 47.702
24.663 -15.519 46.971001
24.813 -15.374783 46.971001
25.301001 -14.295 47.608002
25.417276 -14.025544 47.724277
25.417246 -14.044693 47.724247
25.41666 -14.358533 47.72366
25.41358 -15.590443 47.721363
25.959999 -14.272 46.971001
22.339001 -14.332 46.971001
23.545 -15.493 46.971001
-24.379 9.4610004 61.929001
28.921 -16.917 47.702999
25.411192 -16.86825 47.718975
27.528 -16.825001 47.709999
26.661263 -16.878006 48.968685
26.662399 -16.961369 48.969833
8.8270502 -25.856594 20.35
-6.0489998 -22.995001 20.916
15.677562 -0 61.812546
18.995001 -2.924 57.384998
19 -3.5450001 57.528999
14.13263 22.830294 27.690025
18.504999 -2.8577459 57.344002
18.504999 -2.924607 57.401802
18.504999 -2.933162 57.403793
18.504999 -3.4916129 57.533443
18.504999 -3.659523 57.519672
18.504999 -4.0960002 57.418903
18.504999 -1.414 57.619999
18.504999 -1.415 57.619999
18.504999 -2.997 57.574001
18.502001 -1.414 57.619999
18.502001 -1.413 57.619999
18.502012 -3.4912901 57.53347
13.325845 22.576445 25.498186
13.367072 22.601173 25.602636
13.476155 22.666599 25.879
18.502016 -3.6602149 57.519619
8.79 -10.036 33.369999
8.79 -10.036 26.370001
6.6470499 -9.998559 32.151001
6.6470499 -9.998559 27.709999
-6.177948 -9.7744856 32.151001
-6.177948 -9.7744856 27.709999
19.201 9.2840004 59.112
19.191 9.2589998 53.477001
-23.319271 8 18.422022
-24.668667 7.7340002 18.393154
-24.665989 7.7340002 18.392794
-24.659819 7.7340002 17.761606
-24.653881 7.7340002 17.153999
-24.660133 7.7340002 18.392002
-18.385065 8.1138659 15.025
-18.384981 8.1140385 15.025
-18.384872 8.1142292 15.025
-6.013896 -26.069347 20.887947
-6.1893878 -26.123482 21.024532
-6.1941748 -26.125172 21.028793
-6.594521 -26.26643 21.385204
-5.4321589 -25.907619 20.48
-5.9307232 -26.043684 20.823214
-6.6262722 -26.277447 21.413
-6.1934319 -26.124729 21.027679
-5.2433171 -25.856081 20.35
-19.077423 7.7340002 11.299423
-20.16 7.7859998 13.884
-21.223 8 15.024
-8.118 -33.361 56.820999
-8.118 -33.361 41.646
10.136282 -33.361 42.887115
10.059455 -33.361 42.88702
10.136454 -33.361 42.747913
9.9893084 -33.361 42.886932
10.137811 -33.361 41.646
9.1181421 8.6597328 55.698395
8.0476694 -33.361 42.884529
7.8823299 -33.361 42.884323
7.855566 -33.361 42.884289
7.8446989 -33.361 42.884277
11.331 8.4370003 54.016998
-5.8196769 -33.361 41.755318
-6.0302138 -33.361 41.646
10.914 8.4580002 54.155998
10.67 8.4370003 54.247002
0.123 -33.361 44.169998
10.67 8.4370003 54.236
0.74599999 -33.361 44.247002
-17.017 12.911 54.683998
-18.666 12.933 53.296001
-18.271 12.926347 52.865002
-18.629051 12.931529 52.844925
-17.991667 12.92225 52.854244
10.783 8.3389997 48.251999
-18.728422 12.932946 52.839355
16.797674 -3.3067629 57.548599
17.574032 -3.8757269 57.501945
-21.433472 12.965242 49.588715
16.747 -3.3010621 57.549
16.747 -4.0794778 57.483498
-19.124195 12.938579 52.810379
16.747 -0.61400002 58.651001
16.747 -3.279 58.651001
-21.790447 12.971095 49.945595
-21.729485 12.970096 49.884644
16.384001 -3.260221 57.551865
16.679935 -4.0960002 57.482002
-24.32523 -14.581109 30.241587
-24.303667 -14.613959 30.740019
-24.296738 -14.624519 30.900251
19.195999 -3.3829999 60.778999
16.747 -1.946 60.813999
19.195999 -1.228 60.797001
18.996 -4.165 57.386002
18.504999 -4.1655951 57.40284
18.504999 -4.2336588 57.344002
18.504999 -4.5580001 57.445999
19.195999 -5.5300002 60.585999
16.747 -6.9520001 60.374001
16.747 -4.8169999 60.673
-21.261181 7.7340002 12.782495
-22.485001 7.7340002 11.558
-22.050339 7.7340002 11.34943
-21.973404 7.7340002 11.29415
-22.309189 7.7340002 11.536059
-21.285263 7.7340002 11.29529
-20.565611 7.7340002 11.296574
-20.910891 7.7340002 13.132891
-20.833 -17.823999 30.98
-20.025999 -17.823999 25.181999
-20.403999 -17.823999 26.723
-20.723 -17.823999 28.815001
-10.917347 7.7340002 0.87291998
-10.485616 7.7340002 4.0960002
-10.448243 7.7340002 4.375
-10.966825 7.7340002 0.50357503
-10.966832 7.7340002 0.50352299
-19.584999 -17.823999 23.781
-10.966825 7.7340002 0.50357902
-18.731001 -17.823999 21.716
-9.3876038 7.7340002 0.51321
-9.3869228 7.7340002 0.51321399
-9.3870001 7.7340002 0.51321399
-10.26011 7.7340002 0.508111
-13.442 8.4370003 55.912998
-13.442 8.4370003 50.289001
6.8889999 -33.361 43.335999
1.999 -33.361 44.308998
3.2509999 -33.361 44.247002
3.8740001 -33.361 44.169998
5.1040001 -33.361 43.924999
5.7080002 -33.361 43.757999
-11.313 8.4370003 55.912998
-11.313 8.4370003 53.632
26.660812 -16.845078 48.968235
-16.684 9.335 52.25
-18.240999 9.3529997 50.807999
-20.027576 9.379097 50.67107
-18.664843 9.359128 50.725979
-18.428268 9.355649 50.72562
-20.025785 9.3790703 50.67107
-18.317577 9.3540192 50.723808
11.438779 6.395741 54.903553
11.089073 6.8546739 55.02319
10.944377 7.044652 55.072689
-20.24507 9.3822718 50.652931
-22.282 9.4113674 50.437
10.77213 7.196981 55.131687
-20.589268 9.3872852 50.615181
-21.332535 9.3981152 50.536945
-3.4649999 -33.361 43.082001
-4.026 -33.361 42.799999
-1.107 -33.361 43.924999
24.813 -15.694 46.971001
27.396 -15.694 46.971001
20.907 -13.641 46.971001
-15.425 -18.888 42.446999
-18.292999 -18.888 45.528999
-19.410999 -18.888 45.556
-18.292999 -18.888 48.314999
-19.410999 -18.888 48.314999
-17.086 -18.888 44.368
30.086 -14.29 45.252998
-20.708 -18.888 44.308998
-22.187 -18.888 42.598999
27.08676 -15.694 45.264542
27.743999 -14.34 45.264
10.137549 -33.056847 41.646
9.8000002 -33.056618 41.646
9.9668407 -33.056728 41.646
28.420723 -15.694 45.259029
28.426809 -15.694 45.258999
25.780001 -15.694 45.542999
10.13954 -33.11058 40.067814
9.2527981 -33.086159 40.76749
28.176001 -15.694 45.701
8.8815794 -33.079414 40.958252
28.084 -15.694 45.862999
28.153999 -15.694 45.742001
-5.8427868 -32.636166 41.646
-5.8207998 -32.551136 41.646
-5.803 -32.482349 41.646
-12.014 8.4370003 51.256001
-10.285 8.4370003 52.275002
-12.75 8.1709995 59.005001
4.152 -32.208 45.213001
-10.905 8.1709995 56.723999
-12.75 8.1709995 56.723999
-11.313 7.777 56.131001
1.999 -32.296001 47.662998
1.999 -32.294998 45.213001
1.796 -32.199001 45.213051
1.794 -32.199001 45.213051
-9.7797346 7.7340002 9.3657427
-9.4792004 8.0045061 9.2195988
25.804001 8.849 48.111
-10.352142 7.7340002 5.092443
-10.328228 7.7340002 5.2709732
-10.328091 7.7340002 5.2719998
16.747 -5.8730001 58.397999
16.387039 -4.168159 57.475471
16.384001 -4.168303 57.475452
21.46615 9.019845 46.971001
28.129999 9.2733021 50.437
27.854914 9.2725735 50.471275
27.654049 9.2725754 50.616096
27.593271 9.2725754 50.659992
27.564259 9.2725077 50.680954
19.195999 -7.6599998 60.250999
16.747 -8.5670004 57.863998
19.195999 -10.448 59.553001
16.747 -10.448 59.553001
28.364 9.3249998 61.969002
27.533873 9.2725258 50.702896
16.747 -9.0620003 59.937
19.195999 -9.0620003 59.937
18.504999 -7.9680991 52.010738
18.504999 -7.4906321 52.011002
18.504999 -1.414 52.011002
18.504999 -0.47755399 52.011002
18.983 -4.619 56.993999
18.962999 -3.5439999 56.458
18.964001 -4.7849998 56.459
18.945 -4.618 55.924
18.93 -4.164 55.532001
18.924999 -3.543 55.388
18.929001 -2.9230001 55.530998
11.567 7.6220002 47.908001
26.461996 9.2694368 50.700665
25.346821 9.2662249 50.698662
-6.9231119 8.4370003 54.901123
-6.8416219 8.7980003 54.933392
-6.1919999 8.4370003 54.532001
-7.3189998 8.4370003 54.744282
-7.3189998 8.4370003 53.632
-7.3699999 8.3789997 53.653999
-18.314194 9.6028576 50.723888
-18.307079 10.538761 50.718014
-18.26709 12.583 50.705147
-18.267559 12.571557 50.705219
-16.938999 12.583 50.702999
-6.1919999 8.4370003 54.028999
-5.6167879 -32.768002 41.781017
-5.6079998 8.4370003 54.236
9.0048513 -33.036873 42.21022
9.099 -33.038815 42.154999
6.9651699 -33.044888 41.943081
6.9640002 -33.013 42.870998
7.8713551 -33.013573 42.872143
7.8967042 -33.013996 42.860161
-13.926 -18.888 40.167
28.426817 -15.706192 45.258984
28.427135 -16.111332 45.258331
-23.808001 -18.888 40.167
27.247999 -15.438 43.877998
27.577 -14.742 43.189999
27.098057 -15.694 44.841
-15.862 -18.888 21.412001
-14.632 -18.888 23.072001
-13.926 -18.888 24.236
-21.855 -18.888 21.391001
-23.110001 -18.888 23.084999
-23.808001 -18.888 24.236
18.941999 -2.4690001 55.923
18.961 -2.303 56.458
18.98 -2.47 56.993
-20.294151 9.3793058 48.450039
18.504999 -2.4705751 57.009289
18.504999 -2.4705701 57.009274
18.504999 -2.3056979 56.480518
18.504999 -2.303565 56.473637
-16.49 11.066 46.971001
18.504999 -2.4766631 57.014542
-16.570999 9.9139996 48.096001
-16.506184 11.081566 46.971001
-17.697001 12.227 46.971001
18.504999 -4.6195788 57.010391
18.504999 -4.7855558 56.474739
18.504999 -4.6185498 55.939106
18.504999 -4.6185451 55.939091
18.504999 -4.783412 56.467823
-19.452999 11.029 47.608002
-20.280905 10.922183 48.435905
-20.277805 11.272726 48.432804
18.504999 -4.6129098 55.934227
18.504999 -4.164515 55.546574
18.504999 -4.1570959 55.544849
18.504999 -3.54352 55.402405
-20.112 11.006 46.971001
18.504999 -2.9235251 55.54554
18.504999 -2.4695411 55.937984
-18.815001 12.253 46.971001
-20.276661 11.481446 48.43166
18.504999 -1.414 53.357216
-20.271418 12.391626 48.426998
-20.268375 12.946764 48.423954
18.504999 -9.0930004 53.357216
18.504999 -9.0930004 52.010563
18.504999 -8.4249125 52.011002
18.504999 -1.414 49.894001
18.504999 -6.4759998 57.167
-23.41 12.99 47.709999
-20.816 12.953 47.721001
-22.502001 12.98 49.026001
18.504999 -1.337 49.896
18.504999 -4.8800001 49.618999
18.504999 -6.9489999 49.175999
-15.42 -19.052 55.959
-15.283 -19.055 56.044998
-12.834 -19.09 56.049
26.216 -15.694 44.841
-12.831 -19.247999 53.325001
20.027 -14.897 44.035999
-12.954 7.7340002 5.2719998
-15.403 7.7340002 7.625
-15.403 7.7340002 2.9890001
-12.954 7.7340002 2.99
-26.746 7.7340002 14.333
-12.829 -19.079 53.453999
29.549 -16.778 44.088001
28.26 -16.799999 41.689999
26.754974 -16.835709 44.841
27.423 -16.82 43.582001
7.9354239 -33.014645 42.841858
8.0184536 -33.016079 42.801426
26.749489 -16.412109 44.841
9.2493238 -33.36005 42.885983
-5.6198878 -33.360722 41.859016
-5.2307539 -33.360184 42.060921
-5.2682018 -33.360237 42.041489
28.025583 -16.809669 44.841
-5.1009998 -33.360001 42.154999
-2.3069999 -33.360001 43.561001
25.780001 -16.396 44.841
28.969 -16.791 45.255001
20.693001 9.2589998 52.27
22.406246 9.256834 50.671627
22.254 9.257 50.832001
24.112 9.2625551 50.696621
24.382801 9.2634497 50.697071
23.620096 9.260931 50.695595
22.710968 9.2579317 50.69413
24.112 9.2623806 50.654499
-12.88 -22.611 53.296001
-15.307 -20.927 54.68
-15.329 -22.576 53.292
-12.859 -20.962 54.683998
30.523001 9.2690001 47.749001
-14.507 -19.125 52.648998
-12.839681 -19.912155 52.734734
-12.58696 -19.921295 52.737411
25.44935 9.5760155 47.75666
25.471371 9.5556612 47.756733
25.657164 9.3841896 47.757103
25.776928 9.2538366 47.757423
26.160637 9.2582273 48.467636
25.606441 9.2539864 47.913616
25.692898 9.2539501 47.843227
-14.507 -24.523346 51.24229
-14.507 -23.917202 51.951672
-14.507 -23.035913 52.841057
-14.507 -22.608999 52.865002
-14.507 -20.608999 52.787998
-12.841158 -20.012342 52.744106
-13.431831 -23.054026 52.840042
18.504999 -3.8310001 49.763
18.504999 -2.777 49.855999
18.504999 -11.264 50.289001
18.504999 -11.264 55.912998
18.504999 -8.5930004 56.724998
18.504999 -10.06 56.310001
18.504177 -1.414 52.011822
18.504179 -1.358092 52.011822
18.503656 -1.414 53.355869
18.503656 -1.371491 53.355869
18.504179 -1.357819 52.011822
18.503656 -1.371043 53.355869
-7.6479998 8.7690001 47.338001
-5.6160002 8.4209995 48.292
-6.5050001 7.6220002 47.908001
-7.9604058 5.8570509 54.490284
-7.5500002 6.4299998 48.416
-7.7319999 6.198 54.396
-7.9776011 5.8816829 54.483471
-8.0192776 5.9413891 54.466957
-6.7210002 7.395 54.202999
-7.342 6.6989999 54.216
-13.240355 -23.034555 52.841133
-12.869686 -21.957138 52.839905
-12.878747 -22.57559 52.863712
-12.879217 -22.608999 52.865002
-12.885229 -23.040489 52.840801
-15.366 -25.533001 50.158001
-15.355 -24.598 51.250999
-14.507 -25.891514 49.709515
-14.507 -25.854904 49.759315
-14.507 -25.545271 50.159401
-12.920237 -25.906513 49.724514
-14.40399 -25.893507 49.711506
-14.507 -22.674 48.314999
-14.507 -24.426077 48.314999
-15.348276 -24.560301 48.314999
-15.3094 -21.871601 48.314999
-12.908872 -25.18404 49.002041
-12.927 -26.447001 49.026001
-24.492001 -21.785 61.93
-19.33 -18.983 52.805
-17.725 -19.011999 54.242001
-20.837999 -18.954 51.265999
-21.59 9.2969999 46.971001
-21.223 9.7213593 46.971001
17.347 -11.264 51.084999
-20.867001 9.3859997 47.728001
16.747 -11.095 57.097
19.195999 -8.8739996 56.554001
19.195999 -8.8739996 54.370998
1.795 -32.199001 46.971001
1.795 -32.199001 46.969002
1.796 -32.199001 46.971001
1.794 -32.199001 46.969002
-20.514797 9.382865 48.670666
-26.502001 9.467 47.702999
-26.065001 10.551 47.702
-17.316999 9.9399996 46.971001
-21.223 11.993 46.971001
-23.806999 11.993 46.971001
-17.759001 9.2360001 42.082001
-16.437 11.197 44.035999
-22.930178 11.993 45.264603
-23.712999 10.514 45.264
-24.209 9.4300003 45.264
-24.388132 11.993 45.258659
-22.190001 11.993 45.542999
-22.111 7.7340002 14.333
-29.416 -0 44.554569
-29.416 0.61840397 44.494766
-29.416 1.351173 44.278431
-29.416 3.6757259 43.547722
-29.416 4.0960002 43.329479
-29.416 4.2145891 43.267899
-29.416 5.9639449 42.359833
-29.416 6.1121168 42.282917
-29.416 6.7561698 41.769894
-29.416 6.9116368 41.646
-29.416 -5.3322968 44.500946
-29.416 -5.3308759 44.501362
-29.416 -7.3892531 43.899773
-29.416 -8.1920004 43.665039
-29.416 -5.0946522 44.523594
-29.416 -4.9909158 44.53336
-29.416 -4.4947171 44.580059
-29.416 -2.355876 44.782082
-29.416 -4.1313682 44.61438
-29.416 -4.0960002 44.617722
-29.416 -1.519953 44.701553
-29.416 -10.82988 42.302803
-29.416 -10.830403 42.302391
-29.416 -11.658384 41.646
-29.416 -10.090612 42.684505
-29.416 -8.1925964 43.664864
-29.416 -9.9198809 42.77269
-29.416 -8.2185564 43.651455
-29.416 -12.063 56.820999
-29.416 -12.063 41.646
28.181 -16.545 45.692001
28.138741 -16.620356 45.258705
28.0236 -16.810381 45.258877
28.025362 -16.810028 45.061398
28.052999 -13.563 41.646999
28.052999 -15.285 41.646999
28.052999 -17.129999 41.646999
27.291395 -13.655857 40.959999
28.672001 -14.869326 39.339169
28.833523 -15.312501 38.793121
29.00712 -15.312582 38.769772
28.946217 -15.149658 38.970718
29.048397 -15.694 38.071175
29.214224 -15.694 38.049011
29.178904 -15.611648 38.203377
28.803225 -15.694 39.440277
29.179722 -15.694 38.200485
28.156 -13.652634 40.848
28.227354 -13.802391 40.661232
28.574005 -14.182825 40.164631
28.156 -15.694 40.848
-7.3429999 6.6989999 54.244999
-18.261 -28.197001 61.912998
-18.202702 -18.978298 48.314999
-19.482838 -18.959824 48.314999
-6.1919999 7.8889999 54.217999
30.518999 9.2580004 45.299999
28.237 9.25 45.304001
28.091 9.6129999 45.301998
28.231001 9.2349997 41.737
-6.1919999 7.8899999 54.419998
28.124001 9.5109997 42.011002
-8.118 -15.774554 57.619999
-8.118 -15.292464 61.879002
-8.1192141 -16.134806 54.428318
-8.118 -15.875976 56.723999
-8.118 -15.866898 56.804199
-8.118 -15.863756 56.831951
-8.118 -15.837218 57.066402
27.329298 -13.746217 40.848
28.377111 -14.117667 40.268108
28.424999 -15.694 40.141998
28.507006 -14.416629 39.896946
26.142 -15.825 40.848
27.243799 -13.755895 40.848
27.052 -14.165 40.848
27.346426 -13.578551 35.993084
27.816999 -14.246071 33.993793
27.75631 -14.19356 34.251678
27.644661 -14.059418 34.726044
27.592291 -13.990077 34.948547
28.005005 -14.408737 33.194935
28.005136 -14.409022 33.193539
28.044802 -14.49457 32.768002
28.027428 -14.457933 32.954403
27.367844 -13.616979 35.902069
27.529528 -13.906977 35.215206
-15.267 -19.018 47.742001
-24.495001 11.993 45.862999
-24.563999 11.993 45.742001
-14.507 -22.035 46.971001
-14.507 -22.674 46.971001
-14.179 -22.035 46.971001
-14.179 -23.002001 46.971001
-24.549513 12.91976 45.256382
-15.308347 -21.872654 47.777092
-15.308264 -21.872736 47.729279
-24.499706 13.001959 45.256439
-16.083269 -21.097733 47.731392
-24.142 12.99 41.689999
-23.305 12.982 43.582001
-14.179 -19.952 46.971001
-22.636974 12.97452 44.841
-22.646469 12.551057 44.841
-12.996 -24.184999 48.002998
-14.028 -23.153 46.971001
-12.996 -24.184999 46.971001
-14.831 -22.35 45.886002
-24.468428 13.000813 44.841
-24.503212 13.001326 44.841
-22.190001 12.695 44.841
-14.179 -23.002001 45.886002
-24.503027 13.001373 44.878441
-24.503197 13.001349 44.858608
-14.179 -24.364756 45.886002
-16.261999 -22.525999 45.886002
-16.254999 -22.525 45.886002
-22.941837 11.993 44.841
-24.204 9.4280005 44.181
-24.198999 9.4259996 43.023998
-29.012991 6.8438039 41.646
19.357258 -9.0930004 54.209743
19.357258 -8.8739996 54.209743
19.375999 -9.0930004 51.139
-29.416 4.214612 43.267887
-29.415039 5.2701921 42.719822
-29.415573 1.864665 44.126778
-29.415823 3.4767511 43.650875
-29.415823 3.477401 43.650684
-29.415028 2.5219059 43.932667
15.427675 -6.7079091 58.236858
15.06169 -7.8609109 58.022327
14.954704 -8.1920004 57.946674
15.639634 -4.8280001 58.492485
15.589356 -5.2933149 58.445457
15.454717 -6.4823031 58.279465
15.712108 -4.1572719 58.560272
15.757942 -3.7330821 58.603142
-29.415066 -9.2447748 43.121269
15.611346 -3.549103 57.64521
15.615207 -3.6081769 57.631435
15.732945 -3.4325199 58.633396
15.754928 -3.6968279 58.606792
16.375 -1.413 57.619999
16.375 -1.415 57.619999
16.375 -3.139487 57.524143
16.375 -3.259208 57.551937
16.375 -4.3207359 57.344002
16.375 -4.1687279 57.475403
16.375 -2.9272461 57.47485
16.375 -2.7758939 57.344002
16.375 -2.97299 57.485489
-10.468 -12.239 64.642998
-10.930621 -12.063 61.879002
15.5688 -4.1691489 57.503529
15.62334 -3.7326109 57.602428
-11.539722 -12.063 57.344002
15.53229 -2.9282899 57.50375
-11.897 -12.235 54.019001
15.539974 -2.9886041 57.517513
-11.622334 -12.063 56.728928
-11.622996 -12.063 56.723999
16.375 -4.6370001 57.436001
16.375 -2.997 57.574001
7.0963392 -4.4809418 56.199448
8.6069374 -4.1764979 55.886024
8.3914261 -4.2539129 55.960117
8.7401972 -3.998482 55.840088
9.0714025 -3.555207 55.725914
8.6065493 -2.9357879 55.884991
8.3897371 -2.858598 55.959385
11.45684 -8.1920004 54.911179
0.041710999 -4.641418 56.572258
6.2266021 -4.6337562 56.360157
5.0774932 -4.689054 56.572342
1.636503 -4.702672 56.720345
6.5988879 -4.5683579 56.291378
0.039928999 -2.4924171 56.571217
6.2231979 -2.4847569 56.359173
6.7777162 -2.5804131 56.25687
1.633687 -2.4276659 56.719158
5.0746989 -2.4326961 56.571163
11.725552 -11.264 54.769783
-24.136999 9.0380001 41.886002
-24.049999 9.2360001 42.084
-24.194 9.4230003 41.695999
-23.179001 11.595 43.877998
-23.532 10.91 43.189999
-22.627001 11.993 44.841
-23.816999 9.7600002 42.608002
-24.061001 9.2089996 42.056
-23.908001 9.5559998 42.403
-26.49 9.4619999 45.254002
-12.896336 -24.384941 48.202942
-15.347221 -24.556641 47.810085
-15.348204 -24.560289 48.278591
-15.347047 -24.55592 47.717319
-14.179 -24.372862 46.971001
-14.062686 -24.355186 46.971001
-14.507 -24.426077 48.244076
-14.179 -19.952 44.200001
-14.179 -20.802 43.034
-14.179 -23.001078 42.318001
-14.831 -22.35 42.318001
-14.179 -23.056 42.318001
-15.405 -22.423 42.318001
-15.345 -24.715 45.266998
-15.382 -27.309 45.257
-8.118 -16.694 59.005001
-8.118 -19.143999 59.006001
-8.118 -16.694 56.723999
-8.118 -19.143999 54.370998
10.258414 -15.902522 61.879002
11.885392 -14.521633 61.879002
0 -18.853981 61.879002
1.447597 -18.999662 61.879002
1.83 -19.000999 64.722
4.0960002 -18.727526 61.879002
4.32831 -18.703653 61.879002
4.7129998 -18.705 64.738998
7.0980239 -17.832645 61.879002
7.4850001 -17.834 64.755997
9.6491041 -16.419912 61.879002
10.038 -16.421 64.769997
9.6482868 -16.420364 61.879002
7.7898121 -17.449732 61.879002
8.1920004 -17.226969 61.879002
9.1520443 -16.695221 61.879002
9.1527462 -16.694832 61.879002
9.1536083 -16.694355 61.879002
-6.8263059 -16.384001 61.879002
-6.3850002 -16.441 64.669998
-6.7604079 -16.439686 61.879002
-3.8280001 -17.847 64.686996
-4.2056952 -17.845678 61.879002
-1.433982 -18.709936 61.879002
-1.054 -18.711 64.704002
-1.435241 -18.709543 61.879002
-3.4719369 -18.074669 61.879002
-4.0960002 -17.879911 61.879002
-0.666448 -18.786913 61.879002
27.407 9.7600002 42.608002
27.726999 9.0380001 41.886002
27.650999 9.2089996 42.056
29.070517 9.8620005 39.002789
29.394224 8.9801149 39.997631
28.36088 9.8620005 40.848
27.746 8.9949999 40.848
26.683239 8.9131823 37.868099
26.833584 9.1537952 37.488785
27.074663 9.4815655 36.88055
27.081223 9.4901028 36.863998
27.216419 9.6660852 36.522903
27.22938 9.6945057 36.467781
27.268444 9.7593765 36.30164
27.330244 9.8620005 36.038811
23.457001 9.2290001 37.355999
23.759001 9.7709999 36.305
-15.199 -12.063 59.006001
-12.75 -12.063 59.005001
-12.75 -12.063 56.723999
-15.199 -12.063 54.370998
-10.88 7.1690001 64.057999
-10.924 7.1690001 62.830002
-10.567703 4.7032752 64.048927
-9.6163397 5.9085221 64.015427
-10.732335 4.7038512 62.825077
-10.489 4.7030001 64.634003
-10.859601 4.7042971 61.879002
-10.876134 4.1030431 64.059937
-10.920428 4.3378062 62.831787
-10.916009 4.314383 62.954323
-11.852 2.0650001 64.626999
-12.221405 2.066787 61.879002
-12.22166 2.066293 61.879002
-12.437957 1.326218 61.879002
-12.689 -0.796 64.624001
-13.058221 -0.794967 61.879002
-12.97 -3.7709999 64.624001
-13.130825 -1.56338 61.879002
-13.339221 -3.7697079 61.879002
-12.682 -6.7459998 64.626999
-13.051624 -6.7447071 61.879002
-12.833157 -7.4847012 61.879002
-11.837 -9.6049995 64.633003
-12.207466 -9.6037025 61.879002
-11.852568 -10.287402 61.879002
24.236 -14.313 33.778999
24.021999 -13.948 35.070999
24.336 -14.491 32.873001
28.630421 -14.304865 40.012665
28.346643 -15.694 40.848
28.77713 -14.648239 39.586697
28.744713 -14.552108 39.704792
28.672001 -14.394812 39.900661
28.603537 -15.694 40.136322
11.255 -11.264 54.028999
11.255 -10.717 54.217999
11.255 -10.716 54.419998
11.255 -11.264 54.532001
10.67 -11.264 54.236
11.783 -10.222 54.202999
15.511963 -6.0095682 58.37307
15.775 -3.2390001 58.653
15.514302 -5.9902511 58.376896
15.734619 -3.4260981 58.650467
15.83 -1.79 58.673
15.737048 -3.41678 58.675232
15.739678 -3.4066899 58.702045
15.77 -0.61400002 58.652
15.757729 -3.33744 58.886093
15.832602 -1.790375 60.555569
15.81008 -2.362818 59.976372
15.794952 -2.7473011 59.587353
15.782322 -0.76017499 60.92255
15.79718 -1.055905 60.820362
15.77828 -0.67422301 61.081257
15.775823 -3.233515 59.095406
15.767645 -3.299397 58.987202
15.836926 -1.880031 60.523247
-24.838196 11.993 45.256554
-26.054001 10.546 45.252998
-24.586 11.993 45.701
-26.424 13.023 41.68
-25.431999 13.014 44.088001
-24.851 13.007 45.255001
-24.591999 12.844 45.692001
-24.838982 12.40794 45.255939
-24.694309 12.66374 45.256241
-15.339 -24.698999 41.701
-15.419 -30.334 41.675999
-15.41 -29.341 44.084
-14.179 -24.868 44.841
-14.179 -27.452 44.841
-12.9 -28.237 45.692001
-12.946367 -28.211136 45.257397
-12.938 -28.087 41.689999
-12.921519 -26.581974 44.841
-12.929 -27.25 43.582001
-12.94559 -28.21192 44.841
-12.751 -25.834999 44.841
-13.048 -28.153999 44.841
10.168642 -15.459029 57.344002
9.1242275 -16.384001 57.676601
10.140142 -15.257 55.369961
10.167091 -15.257 55.569641
10.172899 -15.257 55.612667
10.771235 -14.69622 55.152744
10.254731 -15.257 56.219002
10.615008 -15.063712 57.201851
10.39676 -15.257 57.271355
10.299473 -15.257 56.55051
10.139869 -15.257 55.370056
10.971398 -14.518435 55.083851
11.229943 -14.51934 57.006023
11.506602 -14.155313 56.917595
8.4047461 -15.257 55.965866
8.1920004 -15.257 56.005157
8.9091492 -15.257 55.792625
9.651 -15.257 54.532001
10.099522 -15.433805 56.611748
9.8866596 -15.622 56.676712
9.0885448 -16.320999 56.86248
11.029782 -14.441366 55.063732
11.136591 -14.311333 55.091335
11.751267 -13.563 55.250214
4.7969999 -13.977 55.386002
28.062948 9.7981758 25.803175
27.999159 9.6615391 25.457083
27.858496 9.2499552 24.693487
27.836857 9.1824884 24.576
28.090776 9.8620005 25.954165
23.721001 9.7080002 25.556
27.816999 9.1205769 24.468187
27.78175 9.0106764 24.276804
28.156 8.9157963 21.146999
28.262737 9.1641064 21.426378
28.246634 9.5909004 21.38423
28.146263 8.9146919 21.146999
28.309998 9.2853527 21.563446
-11.400955 4.7061911 57.854649
-11.38867 4.7223082 57.850956
-10.792064 5.5153389 57.611149
-11.697906 4.0960002 57.988983
-11.641977 4.209775 57.968094
-10.331191 6.1250238 57.443096
-10.234832 6.2524958 57.407959
-10.106537 6.425138 57.344002
-12.75 4.6739998 57.863998
-15.199 6.5549998 59.553001
-12.75 6.5549998 59.553001
-12.75 5.1700001 59.937
-15.199 5.1700001 59.937
-13.442 0.17 57.574001
-12.75 1.856835 58.410011
-12.860947 1.941004 57.403408
-13.327554 0.270291 57.564434
-13.354438 0.174031 57.573711
-13.355972 0.16877399 57.573727
-13.381774 0.080411002 57.574001
-13.404839 -0 57.577332
-12.825066 2.0697069 57.388371
-12.825715 2.0684071 57.388527
-12.75 2.219805 57.370312
-12.75 1.98 58.397999
28.36088 -17.129999 40.848
28.36088 -16.807888 40.848
25.437 -16.937 40.848
24.013 -17.822001 35.147003
28.325077 -14.539924 29.75877
28.247192 -14.612962 30.595371
28.205549 -14.618493 31.042524
28.100039 -14.557846 32.175179
28.05596 -14.518095 32.648308
28.301918 -14.489335 29.224615
28.307129 -14.504142 29.344778
28.277939 -14.390953 28.672001
28.291842 -14.460698 28.992216
11.534101 -12.253744 54.87431
11.527483 -12.288 54.877922
10.143 -11.677 54.396
9.1149998 -12.365 54.68
11.462328 -12.625255 54.913494
11.342827 -13.127 54.955002
11.463654 -12.618393 54.912769
11.567 -10.449 47.908001
9.802 -11.914 48.627998
14.811559 -8.6349955 57.845455
14.606628 -9.2500877 57.659058
14.501419 -9.5685968 57.569279
14.260668 -10.003288 57.448235
14.190678 -10.129661 57.413048
14.084572 -10.317142 57.344002
13.179061 -11.922044 56.773563
13.179061 -11.923169 56.777882
13.179818 -8.4509068 54.170532
13.179355 -9.7268991 54.171009
16.375 -2.9261639 55.618584
16.375 -2.9423461 55.614849
16.375 -2.4721799 56.011032
16.375 -2.4603031 56.049362
16.375 -2.4731541 57.082333
16.375 -2.4731269 57.082249
16.375 -2.3182981 56.585705
16.375 -2.3062041 56.546684
16.375 -2.506541 57.111137
15.436053 -2.4742911 57.114532
15.357202 -2.3243189 56.635967
15.348302 -2.307476 56.58189
15.445642 -2.519578 57.153282
15.292591 -2.473521 56.048149
16.375 -1.414 55.490002
-24.462999 12.365 41.646999
-24.462999 8.7969999 41.646999
-24.462999 10.52 41.646999
-20.424 13.057 35.142292
-23.185478 8.7980652 38.036472
-12.955 -28.796 45.255001
-12.97 -30.368 41.68
-12.961 -29.375999 44.088001
-14.337 -26.287001 41.646999
-15.997 -24.641001 45.886002
-15.387 -27.32 47.705002
-15.386 -27.233999 47.842999
-15.534948 -24.584469 47.716873
-14.317 -28.013 46.625999
-15.395 -27.997 46.624001
-14.179 -27.452 46.971001
-12.938 -27.355 47.709999
-12.901 -24.76 47.721001
7.9342661 -15.257 56.05275
7.0340199 -15.257 56.219002
5.0905771 -15.257 56.577866
4.0960002 -15.257 56.620644
5.6373782 -15.257 56.476917
7.9780002 -15.257 54.935001
4.8390002 -15.257 55.386002
6.4130001 -15.257 55.209
0.16599999 -13.967 55.382
0.99599999 -14.096 55.441002
3.158 -14.178 55.474998
2.375 -14.186 55.484001
27.802206 8.8756943 21.146999
27.826212 8.8145409 21.071451
28.461824 9.6748075 22.003775
28.529951 9.8620005 22.216152
28.426144 9.5833187 21.900295
27.797342 8.8751431 21.146999
30.518295 14.123 21.413
30.437 14.123 21.146999
28.672001 14.123 21.146999
30.334284 14.123 21.413
24.813 14.123 21.146999
30.437 11.993 21.146999
30.517626 11.993 21.413
30.517626 13.915841 21.413
28.156 11.993 21.146999
28.243692 11.993 21.413
28.250948 11.273278 21.413
28.255722 9.8620396 21.413
27.052 10.464 21.146999
26.142 12.124 21.146999
25.437 13.236 21.146999
-12.004758 3.4717829 58.103592
-12.640637 2.438484 57.344002
-12.69029 2.0719481 58.379879
-12.692253 2.06794 58.380669
-12.691704 2.069062 58.380447
-12.714722 1.983356 58.397396
-12.75 0.93279099 60.415592
-12.75 0.81172901 60.678562
-15.199 1.637 60.585999
-12.75 3.059 60.374001
-12.75 0.92500001 60.673
-15.199 3.767 60.250999
-13.442 4.379642 51.226002
-13.442 3.389992 51.225433
-13.442 2.3556001 51.226002
-13.528 5.8270001 51.139
-14.724 3.1070001 49.944
-14.55 1.538 50.117001
-13.442 5.8270001 51.225056
-15.025 4.8390002 49.643002
-13.442 0.060309 57.17028
-13.442 1.4553339 54.142464
-13.442 -0 57.301281
-15.199 5.8270001 55.900024
-15.199 4.9809999 55.900024
-13.442 5.8270001 54.142464
28.175648 -13.716211 26.317938
28.194563 -13.899199 26.752455
28.219393 -14.077094 27.323683
28.228958 -14.145212 27.543753
28.242716 -14.214229 27.860622
28.175602 -13.716105 26.317686
28.23028 -14.154617 27.574137
24.409 -14.609 31.466999
24.021999 -13.948 26.924
24.309 -14.443 28.857
24.188999 -14.232 27.841
24.395 -14.591 30.058001
8.8900003 -12.493 48.932999
8.1049995 -12.91 54.907001
7.8390002 -13.035 49.235001
15.244 -0.121 55.458
16.375 -3.8804469 55.553055
16.375 -4.0960002 55.6031
15.347737 -3.7316461 55.553444
15.283766 -2.927516 55.656006
15.302 -1.101 55.483002
15.13252 -3.416245 54.179684
15.132529 -3.4161789 54.179802
15.132535 -3.4161379 54.179874
15.230172 -2.7487869 55.385967
15.227449 -2.7688379 55.351295
14.875 -0.75700003 54.176998
15.23277 -2.6875229 55.449345
15.230652 -2.7374661 55.397678
15.107904 -3.5820539 54.179634
15.053197 -3.9505689 54.179531
15.016844 -4.0960002 54.179413
15.296348 -4.006824 55.364681
15.324798 -3.731566 55.382896
15.324284 -3.547461 55.511482
15.31805 -3.6546979 55.388
15.273921 -3.1519549 55.421375
15.239712 -2.7622299 55.447247
-24.566 11.993 40.848
-23.570946 9.4845352 36.863998
-23.551683 9.4281921 36.968533
-23.49296 9.3358545 37.139763
-23.264141 8.9517651 37.807022
-22.552 12.124 40.848
-23.462999 10.464 40.848
-23.665003 9.7356262 36.353661
-23.638599 9.6790867 36.496872
-23.732708 9.8806448 35.986336
-23.634338 9.6699648 36.519978
-24.201241 10.795356 32.768002
-24.190874 10.748127 33.008026
-24.186548 10.72761 33.108189
-24.163061 10.616163 33.652248
-24.163052 10.616154 33.652298
-24.055241 10.496943 34.236763
-23.963413 10.356611 34.734734
-23.92317 10.288604 34.952999
-20.646 10.612 33.778999
-20.431999 10.248 35.070999
-20.746 10.79 32.873001
-20.132 9.7080002 36.438999
-23.816999 10.073982 35.528961
-23.875311 10.207727 35.212563
-13.078 -28.743999 47.702999
-18.205114 -18.975885 47.737045
-18.205198 -18.975801 47.785988
-17.7575 -19.4235 47.735947
-17.060354 -20.120646 47.734016
-16.735893 -20.445107 47.733452
-20.293001 -19.769518 45.280392
-20.292427 -19.768826 45.094025
-16.469 -23.809999 45.27
-16.464001 -23.815001 45.27
-17.423 -22.964001 45.271999
-16.837 -23.483999 45.27
-16.750999 -23.561001 45.27
1.64957 -15.257 56.725864
2.7290001 -15.257 55.474998
5.8769999 -13.743 49.632999
4.6950002 -14.004 49.790001
3.783 -14.131 49.860001
2.5309999 -14.19 49.898998
1.279 -14.131 49.860001
33.209 9.8629999 21.413
19.195999 10.373 58.687
18.103001 14.209 56.734001
19.181 14.212 56.731998
19.184 12.838 56.055
17.235001 12.43 53.652
17.396999 12.43 53.561001
17.275999 12.43 53.630001
19.349001 12.826 53.332001
19.18 12.826 53.460999
19.187 10.413 53.472
18.504999 12.43 52.309334
18.504999 12.43 52.011002
18.784 13.947 52.230999
18.784 13.947 52.273903
18.504999 13.947 52.011002
18.504999 13.947 52.230999
-15.199 5.8270001 54.370998
-13.442 5.7659998 56.724998
-13.442 7.0469999 56.369999
-13.442 2.569 57.341999
-13.442 0.477 49.810001
-13.442 2.053 49.618999
-13.442 3.0929999 49.423
-13.442 4.1220002 49.175999
-12.75 7.2030001 57.097
-9.6649075 7.018537 57.129055
-9.8567905 6.7612128 57.219494
-10.975214 5.8133621 54.501175
-11.007177 5.7708831 54.513985
-11.313 5.3644381 54.63652
-11.313 4.982512 56.88205
-11.313 4.9793882 56.900417
-11.313 5.7309999 54.525002
-11.072505 5.6844468 54.537884
-11.313 5.3662481 54.625877
-10.053323 7.0353279 54.107079
-10.070762 7.0199571 54.111977
-9.7534962 7.299582 54.02285
-9.7531986 7.2998452 54.02277
-9.7536192 7.2994752 54.022888
-9.4062614 7.304841 54.024567
24.013 -17.822001 26.910957
28.556 -22.115 61.912998
25.792 -19.315001 50.158001
24.857 -19.337 51.250999
26.140186 -18.278 49.682552
25.770405 -18.278 50.159695
21.187 -19.417999 54.68
22.834999 -19.382 53.292
19.316999 -19.594999 55.959
19.315001 -19.458 56.044998
-2.7115469 -3.8124671 56.186329
-2.92013 -3.5700631 56.137146
-1.756068 -4.3785429 56.405243
-1.799911 -4.3721461 56.401173
-2.38626 -4.1898079 56.263027
-2.389107 -2.94941 56.26207
-1.8019 -2.7654469 56.40033
-5.0891142 -12.288 55.628307
-7.1618791 -9.7050343 54.807312
-8.1133442 -8.9032602 54.430328
-7.8210001 -8.901 54.431
-7.3429999 -9.526 54.244999
-7.9731288 -8.7019958 54.48587
-7.962822 -8.6872005 54.489956
15.286502 -4.0960002 55.354107
15.237877 -2.741802 55.448288
15.235111 -2.7124131 55.44886
15.230403 -2.7470889 55.388901
16.375 -3.546159 55.475449
16.375 -4.0749998 55.359001
16.375 -4.6221581 57.083439
16.375 -4.7881351 56.547787
16.375 -4.621212 56.012222
16.375 -4.6211839 56.012135
16.375 -4.7760391 56.508759
16.375 -4.5882721 55.983746
16.375 -4.1670928 55.619621
16.375 -4.122498 55.609249
15.473544 -4.6232491 57.114353
15.386188 -4.789331 56.581696
15.330133 -4.622478 56.047966
15.380527 -4.7725968 56.527874
-24.771704 12.365 40.848
-25.074495 8.7979298 39.415352
-25.601608 9.9354496 38.13987
-25.579006 9.8496494 38.238373
-25.532255 9.7138128 38.392845
-24.836 11.993 40.141998
-25.603058 9.9409552 38.133553
-25.600296 11.993 38.163101
-25.701628 10.315131 37.703991
-25.743515 10.418934 37.520981
-25.2265 9.2504301 38.900238
-25.302412 9.464592 38.656971
-19.520613 -23.892994 45.886002
-18.985807 -24.392157 45.886002
-19.389 -24.018 45.263
-20.129114 -22.617073 45.268066
-20.011 -22.624001 45.886002
-19.271824 -22.626667 45.269402
-19.86734 -22.627634 45.26844
-17.817963 -22.624298 45.272625
-17.535 -22.620001 45.886002
-20.128767 -22.617073 45.268066
-17.755266 -22.623272 45.27277
-19.482615 -18.959595 48.264828
-20.245495 -19.722254 47.730347
-20.372543 -19.849279 47.729591
-19.480623 -18.957602 47.734894
-19.480505 -18.957485 47.80508
-17.167 -20.013 43.216
-20.296076 -19.772076 44.466808
-20.300047 -19.776047 43.749229
-20.049 -19.525 44.331001
-17.754999 -22.622805 44.409576
9.0165834 -16.384001 56.879017
9.0841017 -16.324892 56.863514
9.0854607 -16.418333 57.688946
9.0835409 -16.419443 57.689556
8.6066618 -16.694918 57.841026
8.6083698 -16.694918 57.853653
8.6321106 -16.694914 58.029205
8.777791 -16.695 59.107876
8.8944883 -16.695068 59.971954
8.1920004 -17.093781 60.100418
11.864 -19.143999 59.102001
9.8070002 -19.143999 59.744999
9.1140003 -16.695 59.937
8.8615589 -16.694878 59.725838
8.8739986 -16.694923 59.818455
8.8946133 -16.694998 59.971931
8.8476505 -16.69488 59.622997
8.8946877 -16.694956 59.971916
8.8575087 -16.694862 59.695686
18.504999 13.674162 52.309334
18.504999 14.56 51.618
18.504999 13.947 52.310642
18.504999 13.947 52.273903
18.504999 14.56 52.371708
18.504999 12.43 50.289001
18.504999 12.43 52.873001
18.504999 14.56 52.873001
18.247999 12.43 52.268002
18.247999 11.518 52.268002
18.504999 14.56 45.373001
18.504999 11.799 45.373001
18.504999 10.377 46.382999
19.896999 14.123 44.200001
19.896999 12.454 44.200001
19.896999 11.362 44.201
19.896999 11.362 46.971001
19.896999 14.123 46.971001
-11.313 5.3686771 54.611595
-11.313 5.5890002 56.764999
-11.522408 4.7066159 56.951778
-11.821178 4.0960002 57.074249
-12.384606 2.9504371 57.282402
-12.462567 2.794548 57.301159
-12.002679 3.725054 57.148647
-10.148042 -0 54.024143
-9.8684292 1.582999 54.025055
-9.8136024 1.874719 54.025242
-9.7484922 2.0917251 54.025528
-9.430151 3.0581479 54.026985
-10.011767 0.98698002 54.024479
-9.5620003 2.6989999 49.498001
-10.099 0.43399999 49.810001
-9.8610001 1.7029999 49.667
19.357 -21.9 54.242001
23.269852 -18.278 52.832306
22.118999 -18.278 52.787998
20.636 -18.278 52.648998
24.482906 -18.278 51.524124
23.944252 -18.278 52.151855
19.384001 -23.506001 52.805
22.364 -28.566999 61.93
19.408001 -25.014 51.265999
26.663176 -18.278 48.970798
-7.342 -9.526 54.216
-5.0809999 -11.677 54.396
-5.6079998 -11.264 54.236
-5.6079998 -11.264 54.247002
-5.8520002 -11.285 54.155998
-7.3189998 -11.264 53.632
15.329138 -4.5761738 56.00806
15.320258 -4.1683698 55.655792
15.324216 -4.1054301 55.641022
15.217555 -4.7204838 55.280067
16.375 -7.1069999 57.056
15.209531 -4.7880139 55.267838
14.958143 -4.3308282 54.179218
14.022067 -6.9762421 54.174896
14.007105 -7.0177588 54.174828
13.546103 -7.876173 54.172466
13.471614 -8.0148783 54.172085
13.353082 -8.1920004 54.171455
14.918971 -4.487536 54.179089
14.1074 -6.7394629 54.175297
14.729807 -5.132441 54.178215
14.507456 -5.7065392 54.177193
14.786282 -4.9866238 54.178513
14.404887 -5.971365 54.17672
14.228205 -6.4275508 54.175877
14.862245 -4.714469 54.178883
14.85955 -4.7252498 54.178867
14.808649 -4.928874 54.178635
14.891016 -4.5993681 54.178997
14.879575 -4.6451368 54.178959
14.820936 -4.8971491 54.178699
14.922272 -6.9104881 54.923119
14.986109 -6.7063642 54.954006
15.105548 -5.6631432 55.10936
16.375 -6.671 54.976002
14.760582 -7.4117789 54.81076
14.507613 -8.1920004 54.626137
13.483788 -7.9966879 54.17215
15.268 -2.382 49.872002
15.08 -3.8 49.761002
14.884 -4.6739998 49.646999
14.16 -6.691 49.235001
-25.870811 10.789868 36.863998
-25.778048 10.504513 37.370098
-25.531 11.993 37.830002
-25.337095 9.565423 38.542297
-25.372217 9.6675234 38.426178
-25.405941 9.765564 38.314686
-25.578777 10.315189 37.687466
-25.579132 10.315921 37.686184
-25.70912 10.644458 37.106602
-25.752968 10.781199 36.863998
-25.638876 11.993 37.993725
-25.723843 11.993 37.54866
-24.771048 11.993 40.848
-24.934555 11.993 40.358219
-24.771704 12.042888 40.848
-25.23959 8.7979536 39.437439
-25.246227 8.7979546 39.438328
-25.301949 8.7979631 39.445782
-25.510117 9.6429195 38.473766
-25.270639 8.8761225 39.349098
-25.256681 8.8409824 39.388809
-25.268291 8.8686018 39.357681
-24.882887 11.993 40.538418
-25.555876 8.7980003 39.479752
-19.554148 -23.056 41.699917
-16.877001 -20.304001 42.491001
-17.292536 -23.056 42.318001
-17.449493 -22.916809 42.318001
-17.741989 -22.621469 42.318001
-17.591 -22.618999 42.318001
-17.292379 -23.056 42.289169
-17.292305 -23.056 42.292408
-17.281113 -23.056 41.997631
-17.27906 -23.056 41.703751
-17.559965 -23.056 41.703152
-17.568481 -23.056 41.646999
-20.971001 -18.924999 45.283001
-22.004999 -21.061001 45.271999
-21.808329 -21.284328 45.298038
-21.80785 -21.28385 45.27132
-21.760246 -21.236246 45.27161
-21.811832 -21.287958 45.496933
-21.818796 -21.295101 45.785183
-21.818781 -21.295019 45.677799
-21.60338 -21.079435 45.272564
-20.693441 -22.567129 45.886002
27.396 14.123 46.971001
27.396 14.123 44.841
24.813 14.123 44.841
21.316999 14.123 42.141998
25.728056 13.947 50.060169
24.737364 13.947 51.271454
21.625999 12.838 54.252998
-10.019556 6.5421848 57.300636
-15.199 4.9809999 56.554001
-15.322 6.164 49.345001
-15.852842 4.9809999 56.554073
-15.698 7.487 48.967999
-13.442 6.6300001 48.335999
-13.442 5.138 48.880001
-13.33 6.8649998 46.971001
-12.32 1.013 47.98
-12.878 5.0289998 47.422001
-12.547 3.148 47.752998
23.556999 -18.278 48.314999
23.603382 -18.278 48.314999
23.774891 -19.35297 48.314999
22.455008 -19.379992 48.314999
19.343065 -22.491936 48.314999
19.410162 -25.764162 48.314999
29.599001 -19.226 44.084
27.577999 -19.274 47.705002
27.493 -19.275999 47.842999
24.663 -18.278 46.971001
24.663 -17.823999 46.971001
24.974001 -19.323 45.266998
28.233999 -18.18 46.625999
28.256001 -19.257999 46.624001
27.566999 -19.27 45.257
4.1718078 -18.703106 60.715469
4.0960002 -18.710958 60.719799
6.8907962 -17.831921 60.338348
5.8620672 -18.163027 60.515942
4.6917548 -18.538351 60.686348
7.9740262 -17.217497 60.140278
4.869 -19.143999 60.673
7.0040002 -19.143999 60.375
1.300652 -18.999147 60.786526
0.68336201 -18.937086 60.781956
0.425762 -18.911331 60.768929
0 -18.86898 60.731052
2.8988919 -18.834944 60.78817
2.6352961 -18.862185 60.798954
0.56199998 -19.143999 60.778999
2.7179999 -19.143999 60.797001
8.533 -17.386999 53.750168
