# .PCD v0.7 - Point Cloud Data file format
VERSION 0.7
FIELDS x y z
SIZE 4 4 4
TYPE F F F
COUNT 1 1 1
WIDTH 1633
HEIGHT 1
VIEWPOINT 0 0 0 1 0 0 0
POINTS 1633
DATA ascii
-1.06427 -0.477826 7.8263202
-0.84331 0.15083 9.8875599
0.174713 -1.1796499 9.7741404
-1.02013 -0.75705898 7.8629498
1.72989 -1.0371799 6.7500701
-0.82637298 0.232458 9.8744202
-0.96206498 -0.79718202 7.8498101
0.41918701 -1.10689 9.9689503
1.77581 -1.04055 6.6859899
-0.68690401 0.51249301 9.9614
-1.1462801 -0.51260501 7.8651299
0.37641099 -1.12828 9.9195995
1.79374 -1.07607 6.6297598
-1.1394 -0.45024499 7.8513398
-0.70902699 0.46450001 9.9888802
0.31871799 -1.1250499 9.9804897
-0.947707 -0.79407102 7.84377
1.81197 -0.78142202 6.8164902
-0.72044802 0.50208199 9.8515596
-1.00299 -0.66073602 7.8343
0.325041 -1.13808 9.9195995
-1.05764 -0.56953299 7.8382602
1.92246 -0.63980401 6.7550702
-0.68542999 0.52986097 9.9263201
-1.07898 -0.49232599 7.8340902
0.39236301 -1.12992 9.8946199
1.88866 -0.79891199 6.7116599
-1.2087801 -0.094011001 7.8534598
-0.75658202 0.38782799 9.9474201
0.40981099 -1.12992 9.8753099
-1.21092 -0.16795699 7.8571701
1.95941 -0.62807697 6.7112002
-0.77756101 0.30875999 9.9956903
0.294413 -1.14279 9.9087496
-1.19297 -0.051763199 7.8449202
1.97506 1.1648099 5.4422998
-0.76151299 0.40497601 9.8952904
0.19240899 -1.16564 9.8369198
-1.17212 -0.21885601 7.8418102
2.0794101 0.99492198 5.4138999
-0.78534901 0.35286099 9.8848801
-0.12852199 -1.10514 9.9400997
-0.69869101 0.59289497 9.7034197
2.00525 1.07304 5.8484902
-1.16258 -0.36794001 7.8522902
-0.066487998 -1.10833 9.9907198
-1.16676 -0.40683901 7.8583398
1.96764 1.16548 5.5823398
-0.73718703 0.51595402 9.7420597
-0.049367201 -1.1502 9.8189898
-1.1453 -0.25185299 7.83318
2.1349499 0.89003599 5.1876001
-0.82656503 0.34962001 9.6959
-0.072819598 -1.1273 9.8999996
-1.16689 -0.31197199 7.8481898
2.2287099 0.67255598 5.0497899
2.1517701 0.78903401 5.7514
-1.11818 -0.078705899 7.8155398
2.1342299 0.86661297 5.5276699
1.91921 1.08935 6.27705
-1.10066 -0.195759 7.8126402
2.0060599 0.94511598 6.2806201
-1.10004 -0.221486 7.8132801
2.0432899 0.84203601 6.31528
-1.1006 -0.288461 7.8192
2.1229899 0.71095198 6.2178102
-1.12015 -0.20454501 7.8200002
1.95188 1.09348 6.1518798
0.15517201 -1.1505001 9.91751
-1.14525 -0.211851 7.8302698
2.0150499 1.0265 6.0025702
0.120833 -1.13158 9.9905195
-1.11045 -0.295091 7.8236198
2.09586 0.86746103 6.0037298
0.025389399 -1.15229 9.8610001
-1.11985 -0.30912301 7.8286099
0.118507 -1.14916 9.9105396
-0.80345303 0.39089 9.7263603
-0.27978501 -1.22278 7.8152299
2.1647 0.69931602 6.00734
-0.16759799 -1.15468 9.6549997
-0.30367601 -1.2022001 7.8116798
-0.710908 0.53733701 9.8003702
2.25036 0.17537799 6.1967201
-0.26159701 -1.26714 7.8283801
-0.0225207 -1.18603 9.6713104
-0.69502503 0.54800701 9.8410397
2.2365899 0.29293501 6.2140198
-0.359326 -1.21822 7.8253698
-0.0174891 -1.18932 9.6562204
-0.759835 0.44487301 9.8283596
2.2873299 0.214461 5.9214902
-0.49498701 -1.13108 7.8192201
-0.81765401 0.31054199 9.8172998
0.093869701 -1.19333 9.6806202
-0.499589 -1.10325 7.8115001
2.2748499 0.29342899 5.96873
-0.695988 -0.622051 9.7446098
-0.44966 -1.1785901 7.8258901
-0.112863 -1.14887 9.7515802
-0.753883 -0.54331601 9.6988297
2.21979 0.398395 6.1891499
-0.57733399 -1.09857 7.8253899
-0.063119903 -1.15394 9.7846699
-0.71236497 -0.56890303 9.8146601
-0.38218701 -1.30165 7.8625398
2.1515801 0.55318201 6.3125
-0.318286 -1.30609 7.8531399
0.124426 -1.18691 9.7273197
-0.73086399 -0.55842203 9.7621498
-0.63361597 -1.17162 7.8652601
2.2298801 0.524562 5.91151
-0.57673597 -1.1655999 7.8492699
-0.79708898 -0.450086 9.71735
0.16068 -1.18822 9.7347803
-0.27803001 -1.30531 7.84588
2.19257 0.60923803 6.0394301
-0.83267301 -0.34570199 9.75459
1.0526299 -0.786834 9.6861601
-0.426193 -1.24242 7.84547
2.3263199 0.23646601 4.9504299
-0.80886 -0.36601299 9.82757
-0.491155 -1.21056 7.8464098
1.00936 -0.84481698 9.6597204
2.31148 0.271081 5.39674
-0.57382703 -1.14775 7.8420401
-0.79005402 -0.432237 9.7874603
-0.93466598 -0.86896998 7.8593202
1.1030999 -0.71522301 9.73067
2.28265 0.459032 5.0796399
-0.84053302 -0.99329799 7.8636899
-0.64903003 -0.60342002 9.9862804
1.04221 -0.77690703 9.7610703
2.2274201 0.63989902 5.4944301
-0.85794598 -0.871494 7.8343902
-0.71133697 -0.517057 9.9491396
0.98675197 -0.86612499 9.6638498
2.3116801 0.18967099 5.56812
-0.91376698 -0.85112798 7.8468399
-0.74720901 -0.43177301 9.9786301
-0.82508099 -1.0100501 7.8634501
2.2972 0.28760099 5.6768298
-0.77302903 -0.38552099 9.95047
-0.72464401 -0.50782901 9.9190102
-0.717439 -0.546592 9.85116
-0.77716398 -0.41116801 9.8863497
-0.80982399 -0.354579 9.8450098
-0.84277803 -0.0730571 9.9429502
0.941939 -0.90258503 9.6707697
-0.82831597 -0.092855401 10.0007
-0.86330199 -0.0522811 9.8536301
0.95695198 -0.85961902 9.79002
-0.84689999 -0.072381601 9.9245195
0.94039398 -0.88476503 9.7474804
-0.82089502 -0.23177201 9.9443502
1.0509 -0.70596701 9.9517298
-0.80067098 -0.28327101 9.9783001
0.99728799 -0.77845901 9.9224901
0.95512003 -0.82067698 9.9382696
-0.84154898 -0.191113 9.8948402
0.84653801 -0.91468602 9.9327698
-0.82551599 -0.26108199 9.8907299
1.02909 -0.74596298 9.9088202
-0.88701302 -0.112339 9.7065096
1.01158 -0.79104698 9.8313904
-0.88137102 -0.133053 9.7278204
0.92336601 -0.85494202 9.9134703
-0.85511702 -0.30499199 9.6904497
0.83748603 -0.94791901 9.8404999
-0.84560502 -0.333143 9.7046299
0.599172 -1.06078 9.9157
-0.768848 -1.0537699 7.86201
-0.87649202 -0.048287101 9.7890997
2.2506499 0.51268101 5.6276999
0.62111098 -1.04195 9.9559298
-0.72976202 -1.0112 7.8364
-0.65070999 -1.07737 7.83603
2.22803 0.546399 5.8628702
-0.86580998 -0.77221 7.8116002
1.03629 1.96371 5.33529
-0.83927798 -0.82657802 7.8171201
0.97016799 1.99929 5.0610499
-0.69912899 -0.96189398 7.8137498
0.893125 1.99573 5.86059
-0.62320602 -1.02074 7.81214
0.98629397 1.97544 5.5738602
-0.86458302 -0.099604301 9.8283501
-0.88862002 -0.79827702 7.82447
0.558873 -1.0845701 9.88486
1.34096 1.79716 5.3843098
-0.82410502 -0.888978 7.8285499
-0.84559 -0.27020001 9.7830296
0.65174103 -1.04724 9.8786297
1.3983099 1.76165 5.3916702
-0.73024899 -0.976798 7.8257799
-0.84559703 -0.239237 9.8200903
0.68294299 -1.02114 9.9290199
1.235 1.84903 5.6445799
-0.61796099 -1.0853601 7.82974
-0.201684 -1.00588 9.7246304
0.81018001 -0.928945 9.98244
1.35419 1.77562 5.6465802
0.55590701 -1.2506 7.8179998
-0.30163899 -0.96854597 9.7027903
0.840334 1.9646699 6.21422
0.80878597 -0.96830601 9.8294296
0.413699 -1.27692 7.8153901
1.08745 1.86347 6.2070098
-0.20041201 -0.98513901 9.8262997
0.76445699 -0.987055 9.8642998
0.493819 -1.29667 7.83007
1.17363 1.7836699 6.3208499
0.39324501 -1.30246 7.82302
-0.29070401 -0.95770103 9.7782602
1.2368701 1.77396 6.2184501
0.296792 -1.29774 7.8167701
-0.33130699 -0.943187 9.7496595
0.874322 1.9789701 6.0620399
0.23526201 -1.29133 7.8127298
-0.42122599 -0.89071602 9.7370195
1.03528 1.91172 6.0625701
0.181197 -1.34644 7.8323798
0.53015399 -1.14385 9.6641197
-0.38753301 -0.891168 9.8257399
1.36854 1.7132699 6.1405301
0.28075299 -1.30891 7.8204498
0.647802 -1.09172 9.6791401
1.30481 1.7789 5.9642401
-0.416096 -0.87821198 9.8057604
0.53011298 -1.36472 7.8627701
0.70240402 -1.07048 9.6684303
0.50609303 -1.34718 7.8524098
1.78573 1.31795 6.1711302
-0.155301 -0.96809697 9.9830198
0.772259 -1.0179 9.7125301
0.33790699 -1.4010201 7.8617001
-0.27232099 -0.93202502 9.9299803
1.6609401 1.44036 6.2326899
0.592381 -1.09847 9.7582703
0.247857 -1.4021699 7.8590698
-0.36016801 -0.871176 9.9745703
1.86694 1.26362 5.9801302
0.508183 -1.31444 7.8387098
0.65352303 -1.07051 9.7697897
-0.41621399 -0.83617598 9.9766197
0.43945101 -1.3385201 7.8419499
1.70558 1.43893 6.0448399
0.82076597 -0.98172998 9.74051
0.310242 -1.35499 7.84027
-0.27574599 -0.932751 9.9205704
1.64016 1.46149 6.2389898
0.78719097 -0.98608202 9.8106499
-0.27295899 -0.94759703 9.8596201
0.166021 -1.36972 7.8418002
1.46946 1.5929 6.28265
1.33346 -0.112974 9.6888304
-0.213232 -1.3589 7.8611102
-0.416931 -0.84996003 9.9219103
1.4435 1.69768 5.9054799
-0.090566598 -1.39726 7.8652101
1.3362401 -0.156322 9.6552296
1.42035 1.69642 6.03023
-0.35539001 -0.907341 9.8414497
-0.224525 -1.29167 7.8333902
1.3287899 -0.028541701 9.7488403
1.8002 1.40783 5.1336799
-0.64329302 -0.62960398 9.9327297
-0.073701501 -1.33137 7.8350301
1.32505 -0.078344099 9.7472696
1.7808599 1.4165699 5.4668698
-0.608437 -0.65576398 9.9751101
0.044318002 -1.39091 7.8550801
1.30548 -0.29280099 9.6842804
1.69919 1.52247 5.1802502
0.13327301 -1.41798 7.8643398
-0.60687798 -0.69556701 9.8591204
0.0093131298 -1.35488 7.8404198
1.2893699 -0.35868999 9.6851301
1.48303 1.69621 5.4738698
0.141149 -1.36 7.8382602
-0.57873899 -0.72247899 9.8775997
-0.090271004 -1.26796 7.8123999
1.30795 -0.21890999 9.7621002
1.86505 1.29791 5.7165799
-0.042433701 -1.298 7.8190198
-0.54838502 -0.73149103 9.9578695
1.26774 -0.35624999 9.7965403
1.71429 1.47368 5.7148299
0.0299473 -1.28251 7.8112302
-0.47288299 -0.78798401 9.9844503
1.26578 -0.169806 9.9936504
1.56599 1.62151 5.5475798
0.019042 -1.3013099 7.8183498
1.2729 -0.145597 9.97054
-0.55811697 -0.74899697 9.8652401
1.44049 1.70443 5.8524399
-0.16796599 -1.28365 7.8249698
1.26447 -0.21086299 9.9729605
-0.46675101 -0.81939399 9.8923197
-0.35952801 2.07899 5.4904199
-0.068591699 -1.30975 7.8259602
1.23083 -0.339771 9.9841003
-0.65831101 -0.67337501 9.7336502
-0.22931001 2.12415 4.9754601
0.034553099 -1.30871 7.8206902
1.29431 -0.043291699 9.9117899
-0.60606003 -0.73835403 9.71908
-0.347848 2.0682299 5.7234702
0.105604 -1.32538 7.82517
1.29185 -0.146258 9.8835096
-0.57128799 -0.78369701 9.6842203
-0.20988899 2.1131101 5.52667
1.15329 -0.82936102 7.81457
1.09079 -0.91566902 7.81776
1.21866 -0.81203097 7.82939
1.17574 -0.82771802 7.8204298
1.06557 -0.92771 7.81389
1.02028 -0.96102101 7.8124399
1.27016 -0.26908001 9.8847399
1.0897 -0.95322502 7.8273501
1.25238 -0.356801 9.8688498
0.94156599 -1.07955 7.8274202
1.08533 -0.66087401 9.9491796
1.2537301 -0.86566401 7.85602
1.13595 -0.56691498 9.9747105
1.18243 -0.96989697 7.86234
1.09821 -0.68318403 9.8430004
1.1178 -1.04278 7.8650699
1.178 -0.55642498 9.8322496
-0.471982 -0.866247 9.6928902
1.08732 -1.0316401 7.8521399
1.17155 -0.51055598 9.9554195
1.19705 -0.89842898 7.8462501
-0.66922599 -0.65416098 9.7564898
-0.092101999 2.1380401 5.1532798
1.2202899 -0.39888799 9.9442501
1.13375 -0.94740099 7.8393502
-0.58649701 -0.744914 9.7749901
0.142368 2.1510701 5.34167
1.17978 -0.529917 9.8860502
1.00828 -1.08328 7.8467999
-0.52135199 -0.801413 9.7846699
0.096384697 2.12163 5.8677201
1.21974 -0.42991999 9.8917904
0.96410102 -1.11373 7.84446
-0.48407 -0.83057398 9.7947102
0.0200962 2.13042 5.6235199
1.1866601 -0.609442 9.6521301
0.65757602 -1.29931 7.8526802
0.47081801 -1.0257 9.7278004
0.427073 -1.04287 9.6921701
0.442175 -1.01123 9.8345699
0.36017999 -1.0344501 9.8161802
0.27085701 -1.06191 9.7395096
0.74802601 -1.2757 7.8586502
0.306162 -1.06854 9.6891603
0.71820998 -1.2288001 7.8345399
0.321605 -1.0413899 9.8247204
0.71653098 -1.2365201 7.8373098
0.196198 -1.06397 9.7590599
0.90211302 -1.1776299 7.8538799
0.431238 -0.98681301 9.9596901
0.89657998 -1.19148 7.8579602
0.41483799 -0.99737 9.93048
1.18241 -0.60241699 9.6913099
0.77957398 -1.2003599 7.8343301
0.31847301 -1.00832 9.9820099
-0.45263001 1.99166 6.1858401
1.23315 -0.516195 9.6629295
0.82779098 -1.1975501 7.84412
0.24157 -1.01924 9.9595299
-0.31550699 2.0267899 6.1754799
0.63030398 -1.21163 7.81497
1.2623301 -0.43817699 9.6778402
0.134976 2.0490201 6.3245902
0.37329501 -1.00801 9.9270401
0.65273303 -1.20916 7.8172698
1.115 -0.69427103 9.7426205
0.81966197 -1.10991 7.81249
0.0261021 2.05967 6.2463398
0.33226499 -1.02474 9.8942204
1.14074 -0.63032401 9.7995796
0.90404898 -1.05865 7.8126898
0.31026801 -1.03468 9.8620901
-0.32250601 2.0383899 6.0929399
0.58460802 -1.26029 7.8254299
1.22391 -0.50513703 9.7310896
0.192296 -1.03951 9.8824997
-0.28223601 2.07074 5.9197202
0.73976099 -1.20119 7.8275199
1.2377599 -0.45128199 9.7700195
-0.13084801 -0.98607701 9.9365902
0.76348102 -1.1851799 7.8256402
0.129265 2.09009 6.1536598
-0.023500901 -1.00813 9.9516201
1.26238 0.12584201 10.0088
0.799034 -1.1807899 7.8316302
1.25152 0.13360199 10.0489
1.45172 -0.056810599 7.8177299
0.069483899 2.1135099 5.9348602
-0.073584899 -1.0151401 9.8645096
1.4306999 -0.212203 7.8147001
1.22913 0.271121 10.019
-0.016740501 -1.02391 9.8867998
1.48087 -0.13693599 7.8318
0.62174302 2.0301099 6.1806402
1.2199399 0.28440699 10.0417
0.0077920002 -1.00922 9.9781303
1.45982 -0.18600801 7.8249798
0.61843002 1.9949501 6.3245902
1.42974 -0.259547 7.8179402
1.39247 -0.342307 7.8118501
1.4663 -0.24886701 7.8310299
1.4094599 -0.41555101 7.8245602
1.53721 -0.075965598 7.8540401
1.52605 -0.19417 7.8533101
1.53207 -0.258362 7.8599801
1.47875 -0.39666101 7.85114
1.52277 -0.030553799 7.8459301
1.48972 -0.075928099 7.8334098
1.49681 -0.242154 7.8429298
1.4358799 -0.40588799 7.8340502
1.30093 -0.79311901 7.8539901
1.37661 -0.70928198 7.8635998
1.2905 -0.72053897 7.8336501
1.3015701 -0.756347 7.8456702
1.40218 -0.63769698 7.85742
1.46392 -0.51523799 7.8621802
1.36482 -0.59022599 7.8343101
1.40073 -0.58131099 7.8470602
1.22163 -0.736471 7.81393
1.27062 -0.658355 7.8143601
1.35393 -0.457387 7.81077
1.36383 -0.43490699 7.8109798
1.22782 -0.77383 7.8232298
1.28627 -0.72008502 7.8320398
1.33509 -0.57768202 7.82125
1.35532 -0.596973 7.8317099
1.24756 0.070224397 10.0718
1.56998 0.00223455 7.8677802
1.60024 -0.0117455 7.8818002
1.24962 0.035785601 10.0735
1.5389 0.255034 7.86692
1.21304 0.27056101 10.0695
1.5502 0.365082 7.8847299
1.228 0.194874 10.0774
1.60128 0.146587 7.8888202
1.1159199 0.54852998 10.0016
1.6319 0.0116822 7.9004102
1.14952 0.48866501 10.0113
1.5698299 0.399896 7.9003501
0.16092999 -1.02438 9.9630098
0.559793 2.0810499 5.9282699
1.6034 0.229902 7.8960299
1.08496 0.56783199 10.0603
0.086916097 -1.04082 9.8589602
1.3213 0.77355099 7.8666801
0.67719603 2.0329499 6.0820498
1.1065 0.52634197 10.068
1.44251 0.64534801 7.88446
0.071219303 -1.02582 9.9254198
0.378622 2.0724299 6.1689401
1.38117 0.81653303 7.90557
1.15907 0.47282499 10.0034
-0.12343 -1.03813 9.6895599
1.41071 0.75291699 7.9009199
0.173685 2.0739701 6.2276602
1.20933 0.34046 10.0191
1.45303 0.61239302 7.8822198
-0.086864203 -1.03628 9.7449903
0.41242099 2.0832701 6.0764098
1.4679199 0.56812698 7.8807201
1.14789 0.457481 10.0608
0.110855 -1.07612 9.6862402
1.49505 0.56289297 7.8929601
0.214708 2.1078899 6.0035901
1.17774 0.35385901 10.0897
1.53929 0.53240198 7.9102702
0.146373 -1.06967 9.7356396
0.56148797 2.12233 4.9854298
1.56531 0.70911098 7.9942398
1.0067199 0.53643101 10.1934
-0.0320375 -1.04582 9.7628498
1.43843 0.89052999 7.9796
0.69784498 2.0816901 5.2838502
1.03909 0.53133202 10.1603
1.62172 0.480097 7.9551601
-0.0016198501 -1.04092 9.8228197
1.12797 0.295798 10.1897
1.5937001 0.55352902 7.9573698
0.239427 2.1552501 5.0251698
0.099864997 -1.0608 9.7636404
1.07962 0.43189001 10.1802
1.44082 0.828462 7.9478898
0.42306599 2.1290901 5.4702702
1.43013 0.79192299 7.9258499
0.103519 -1.05299 9.8046503
1.08955 0.48606801 10.1332
0.712448 2.0634301 5.6516199
1.59137 0.51056999 7.9405499
0.94160199 -0.71758699 9.7518301
1.54225 0.62557602 7.9393501
1.04914 0.56071198 10.1264
0.56790602 2.0919099 5.7465701
1.71732 0.119964 7.9772401
0.99905097 -0.66777402 9.6918297
1.18629 0.31959599 10.0994
1.70311 0.0376819 7.9552999
0.476558 2.1147499 5.6647301
0.98367298 -0.65228701 9.8061895
1.10996 0.46150801 10.1256
1.6694601 0.0127679 7.9257002
0.38577199 2.1119001 5.8287601
1.65172 0.193268 7.9232702
0.96197402 -0.68400699 9.7848396
1.16157 0.050496802 10.2052
1.68186 0.39188701 7.9909701
-1.51701 1.35695 5.1653199
1.18501 0.123111 10.1665
1.63649 0.420194 7.9514799
0.91043597 -0.77156103 9.6869802
-1.40443 1.49148 5.0834799
1.21429 0.094610699 10.1289
1.6437401 0.23481201 7.9221001
0.83073097 -0.834517 9.7074604
-1.44701 1.3947999 5.8327198
1.22835 0.11195 10.1046
1.62282 0.38707799 7.9341898
0.81378001 -0.816369 9.8363199
1.2066801 0.94724202 7.8762398
0.79162699 -0.84604698 9.7944603
-1.3634 1.50223 5.7234402
1.26834 0.87526298 7.8762002
1.1427 0.20015 10.2009
0.91342801 -0.68092197 9.9720697
1.00809 1.1065201 7.8685799
-1.33629 1.55155 5.2543402
0.87862402 -0.73466903 9.9334097
1.17147 0.24556699 10.1496
1.12659 1.02204 7.8745999
-1.14007 1.71983 5.2206602
0.83264101 -0.75919998 9.9837399
1.22106 0.98637497 7.89535
1.19231 0.23442701 10.1235
1.3263201 0.86864102 7.8972502
-1.26194 1.58719 5.7495198
0.764 -0.82493001 9.9587202
1.1327699 1.0577101 7.8902302
1.21772 0.20635501 10.0949
-1.1989 1.6440099 5.7098298
0.96537399 -0.64662099 9.8928699
1.15705 1.06301 7.9019299
0.96574199 0.73927498 10.0251
-1.50293 1.21691 6.3081799
0.76094699 1.2562 7.8694801
0.93529499 -0.69248301 9.85886
1.02514 0.66203701 10.0456
0.75520998 1.29273 7.8846898
0.81366199 -0.792041 9.92661
-1.38676 1.38249 6.2268901
0.74443197 1.31076 7.8915501
0.85435802 0.84101802 10.0233
0.77510601 -0.83897501 9.8745804
0.81105101 1.27737 7.8885002
0.93590999 0.77225602 10.0214
0.84099799 1.2297 7.87536
-1.32258 1.4656301 6.20434
0.47833699 -0.97791398 9.9468098
0.84617198 1.25348 7.8864398
0.93781602 1.21715 7.8964
1.0141701 1.17436 7.89849
0.79617 1.39745 7.9678001
0.67990601 1.43726 7.9593401
1.04447 1.27645 7.9832501
0.88564599 1.3755 7.9844699
0.71937698 1.39756 7.9397302
0.71508098 1.38369 7.9284201
0.99888498 1.22579 7.9218202
0.86649001 1.33854 7.9427199
1.4019099 0.91355801 7.9639201
1.37397 0.92830598 7.9517102
1.3947099 0.88744098 7.9423199
1.24405 1.00606 7.9133401
1.17939 1.18007 7.9902201
1.07596 1.2247699 7.9554501
1.22273 1.06083 7.9303899
1.06268 1.21198 7.93925
0.44693601 1.36383 7.8713698
0.44041201 1.39263 7.8841701
0.273009 1.39066 7.8730001
0.32072201 1.4074399 7.8828702
0.54818702 1.37318 7.8870502
0.61735398 1.38968 7.9060001
0.27752799 1.4387701 7.8984499
0.28663599 1.45234 7.9068599
-0.23526099 1.33593 7.8709798
-0.280902 1.35885 7.8868098
-0.22303499 1.37471 7.888
-0.15201201 1.4122601 7.89993
0.041683901 1.3915 7.8738098
0.129925 1.3915401 7.8705401
-0.055467501 1.41171 7.8872099
0.14893299 1.45511 7.9035001
-0.172603 1.51196 7.9846301
-0.295338 1.48702 7.9889002
-0.0411608 1.54734 7.99613
-0.066752203 1.51701 7.9663301
-0.088581502 1.45911 7.9198799
-0.190093 1.43692 7.92133
0.0426789 1.5025001 7.9437699
-0.063711599 1.4686 7.9237299
0.555197 1.48377 7.9696002
0.429079 1.49624 7.9516902
0.54372001 1.45253 7.9382701
0.40415201 1.4726501 7.92836
0.22662801 1.55426 7.9919901
0.16674501 1.53306 7.9648499
0.19950099 1.5106 7.9450498
0.19465999 1.47255 7.9151101
-0.392551 1.28499 7.8743801
-0.283216 1.32173 7.87042
-0.62985599 1.14924 7.8712401
-0.52078599 1.25011 7.8851399
-0.39933601 1.31891 7.8915701
-0.293358 1.37521 7.89817
-0.60857999 1.2172199 7.89534
-0.52451301 1.29327 7.9075999
-0.96720803 0.85040301 7.8773999
-0.87475902 0.97357601 7.8822398
-0.94818199 0.92769599 7.89644
-0.98860401 0.91493601 7.9096699
-0.69482899 1.09288 7.8674502
-0.71811199 1.11566 7.88311
-0.69140899 1.14958 7.88728
-0.84465098 1.07197 7.9110799
-1.00269 1.02518 7.98174
-0.99255401 0.99862498 7.95543
-0.80624503 1.2050101 7.9778299
-0.76854098 1.20364 7.9509902
-1.06115 0.90637201 7.94731
-0.96294999 0.96596497 7.9193802
-0.73775798 1.18765 7.9251499
-0.87548298 1.06073 7.9194002
-0.40761101 1.4235899 7.96769
-0.373106 1.4283299 7.9583201
-0.48974499 1.36891 7.948
-0.51236099 1.32444 7.9226899
-0.56145298 1.36379 7.9748201
-0.63194001 1.2975 7.9542499
-0.60760999 1.28789 7.9363399
-0.695279 1.22425 7.9298501
-1.09668 0.64862299 7.8769698
-1.0411 0.762622 7.88271
-1.10794 0.587161 7.8688898
-1.12194 0.57947397 7.8737402
-1.09258 0.722718 7.8954501
-1.08189 0.76525301 7.9031301
-1.21185 0.47602999 7.8966198
-1.23656 0.48217401 7.91151
-1.25578 -0.0153698 7.8726301
-1.24211 0.172672 7.8733802
-1.28 0.13143601 7.8906999
-1.31609 0.12113 7.9114699
-1.248 0.219749 7.8792701
-1.2420599 0.300145 7.8856101
-1.27931 0.225394 7.8963199
-1.2627 0.352759 7.90447
-1.39004 0.140361 7.9773102
-1.36728 0.137146 7.9531298
-1.32883 0.410092 7.9674702
-1.35526 0.25419 7.9559398
-1.36984 0.0033837799 7.9454298
-1.34245 -0.00781071 7.9233799
-1.27986 0.43162099 7.9292598
-1.3039 0.25354201 7.9147902
-1.16144 0.81080699 7.9796901
-1.17695 0.76874501 7.9706001
-1.06555 0.86471701 7.9295101
-1.16673 0.68673199 7.9246602
-1.22859 0.65299702 7.9589801
-1.2422 0.61334997 7.9563098
-1.24884 0.53426999 7.93543
-1.27865 0.46774599 7.93715
-1.24818 -0.23148 7.87707
-1.26934 -0.062698103 7.8806601
-1.21991 -0.31950501 7.87292
-1.22785 -0.24573299 7.8682699
-1.27947 -0.15546399 7.8896499
-1.32469 -0.022985101 7.9099698
-1.25941 -0.32620701 7.8934202
-1.28978 -0.26552099 7.9024401
-1.01357 -0.83900899 7.88064
-1.0298001 -0.831846 7.88554
-1.05775 -0.79609197 7.88832
-1.1251301 -0.71291298 7.89675
-1.1105 -0.64905399 7.8741899
-1.19596 -0.46763101 7.8789601
-1.20104 -0.52835703 7.89362
-1.22097 -0.51776999 7.9021201
-1.2063299 -0.74590099 7.9629402
-1.15965 -0.79742801 7.9492002
-1.28856 -0.611651 7.9849
-1.24304 -0.68677098 7.9707499
-1.1604 -0.779073 7.9419899
-1.13438 -0.77690399 7.9237099
-1.22254 -0.66022199 7.9422598
-1.20283 -0.61950201 7.9158301
-1.40453 -0.0282232 7.97962
-1.36831 -0.21434399 7.9574399
-1.35507 -0.150435 7.9407201
-1.326 -0.119936 7.9161301
-1.37254 -0.309255 7.97754
-1.33665 -0.39513299 7.9620099
-1.3125 -0.35368499 7.9324999
-1.2955199 -0.43718499 7.9349298
-0.93150002 -0.900702 7.8677402
-0.91566598 -0.977386 7.8860402
-0.67034 -1.15491 7.8681102
-0.82201999 -1.06996 7.8843298
-0.90109301 -1.03948 7.9032102
-0.98179603 -0.93910098 7.9007602
-0.78157198 -1.1222399 7.8917699
-0.85830998 -1.09249 7.9078102
-0.37360099 -1.33263 7.8745198
-0.47717401 -1.2918299 7.8755999
-0.44261599 -1.33346 7.8878798
-0.50748801 -1.3492 7.9112201
0.98287201 0.708848 10.0516
-0.572281 -1.23607 7.8761802
1.0315 0.63196599 10.0836
-0.614411 -1.21627 7.8786998
0.92786598 0.76879901 10.0519
-0.51318699 -1.33237 7.9039402
0.92974299 0.74922901 10.0851
-0.68844497 -1.21631 7.8997698
-0.40491599 -1.47996 7.9830999
0.59496498 0.99863797 10.0146
-0.35214999 -1.5005701 7.98173
0.58046901 0.99578798 10.0469
-0.63061601 -1.37052 7.9836998
0.51715302 1.01389 10.0672
-0.67385501 -1.3049001 7.9486599
0.643179 0.9648 10.0594
-0.51204097 -1.3669 7.9247999
0.72514302 0.93748403 9.9987202
-0.37978199 -1.40651 7.9135699
-0.69607002 -1.24472 7.9175601
0.78298599 0.88835698 10.0441
-0.58727998 -1.31235 7.9180398
0.75405198 0.90148997 10.0565
-1.02913 -1.04456 7.98914
0.75857401 0.887182 10.0803
-0.95658702 -1.09671 7.9669499
0.56844002 0.90800703 10.1903
-0.94685102 -1.07058 7.9430599
0.48689601 0.95799398 10.1708
-0.93402499 -1.0882699 7.9444599
0.71188498 0.83621502 10.1841
-0.872163 -1.17928 7.9706001
0.68140203 0.86167699 10.1766
-0.78584701 -1.25868 7.9753399
0.64561403 0.93747699 10.1099
-0.89328903 -1.08421 7.9189501
0.57207799 0.96976203 10.1076
-0.85369301 -1.1178 7.91887
0.76370198 0.862921 10.1136
-0.19316299 -1.38413 7.87043
0.71350098 0.89609098 10.1105
-0.26499501 -1.3825099 7.8776698
0.96169603 0.60012001 10.1936
0.158243 -1.43999 7.8738899
0.92928201 0.68698001 10.1512
-0.042989202 -1.41302 7.86835
0.99305201 0.64881903 10.116
-0.27536699 -1.4013799 7.8878198
0.92843002 0.73496002 10.1049
-0.19188499 -1.4618 7.9112
0.877231 0.70662701 10.1848
0.15388399 -1.47719 7.8930702
0.82758701 0.76502401 10.1685
-0.0244353 -1.47203 7.8981299
0.85386598 0.77873898 10.1305
0.49109501 -1.38937 7.8697801
0.80324298 0.850631 10.0958
0.38623101 -1.4149801 7.87011
0.35405001 1.06747 10.0315
0.60651898 -1.40467 7.89046
0.45504001 1.04135 10.0396
0.51737303 -1.45761 7.9087601
0.37780499 -1.44678 7.8849602
0.229959 1.08891 9.99652
0.266931 -1.4434299 7.87924
0.28365099 1.07623 10.03
0.280624 -1.4621 7.8891201
0.49135399 1.02841 10.0542
0.20959701 -1.5038199 7.91047
0.47618601 1.01686 10.0901
0.46334499 -1.5447201 7.9693298
0.16967499 1.06499 10.0864
0.58850002 -1.5232 7.9777002
0.26130599 1.05511 10.0933
0.34399399 -1.57728 7.9843602
-0.129638 1.0526201 9.9964895
0.30280799 -1.56984 7.9732099
-0.049042199 1.0628 10.0306
0.521788 -1.50662 7.9454799
-0.17249399 1.02212 10.0653
0.52432102 -1.4775 7.92377
-0.062050398 1.04454 10.0743
0.25378799 -1.53786 7.93889
0.042499099 1.07795 10.0233
0.30816999 -1.50904 7.9196601
0.0273128 1.0696501 10.0512
-0.31186801 -1.5113699 7.97751
-0.0072170501 1.05347 10.084
-0.104486 -1.53442 7.9507098
0.096759297 1.06268 10.081
-0.27926299 -1.47403 7.93571
-0.225839 -1.4682 7.9216299
-0.019555099 0.98697698 10.1781
-0.028018599 -1.56247 7.9695501
-0.079923302 0.99614203 10.1478
-1.14868 1.62672 6.1635599
0.57641101 -0.930583 9.9734497
0.081536397 -1.55717 7.9551301
0.157281 0.99385899 10.1917
0.0143719 -1.54531 7.9481602
-1.54471 1.26489 5.9529901
0.48534599 -0.98399699 9.90802
0.068468802 -1.52151 7.9263401
0.00992647 0.99991697 10.1687
-1.36693 1.4739799 5.94309
0.743249 -1.32087 7.87746
0.612804 -0.93479198 9.89042
-0.0068057599 1.02798 10.1269
0.62680203 -1.35428 7.8706999
-1.29848 1.51605 6.0706501
0.92024899 -1.21946 7.87498
0.70655698 -0.86998999 9.9304895
-0.150702 0.98834503 10.1353
0.909908 -1.23455 7.8785701
-1.11457 1.67187 6.0753598
0.64925402 -0.88876897 9.9934797
0.108364 1.02872 10.1407
0.837632 -1.3489799 7.9121099
-0.60389203 1.92064 6.2399001
0.71536398 -0.884345 9.8492699
0.61780298 -1.41351 7.8972902
0.09911 1.05042 10.1053
0.96270502 -1.22969 7.8905802
0.689565 -0.88914299 9.8948097
0.46564499 0.97384298 10.1582
0.96435398 -1.25617 7.9044299
-0.78458601 1.8634501 6.1708899
0.573394 -0.99116302 9.7023201
1.2828701 -0.90810102 7.8794699
-0.53672802 2.0048101 5.9113202
0.34919301 1.01192 10.1448
0.552665 -0.99129999 9.7447395
1.19155 -1.0129499 7.8789701
-0.52604502 1.979 6.1297202
0.47023401 1.00721 10.1086
1.29928 -0.92707098 7.8924298
0.651465 -0.95814401 9.6965704
-0.892331 1.79954 6.1694698
1.19933 -1.04688 7.8937201
0.38490301 1.03662 10.0945
0.77968901 -0.87780303 9.7039204
1.152 -1.04014 7.8747201
-1.04748 1.66948 6.2908702
0.29159501 0.99313402 10.1801
0.56227201 -0.98256803 9.7674904
1.02774 -1.14675 7.87503
-0.81059003 1.85969 6.1164098
0.23859499 1.01324 10.159
0.60894001 -0.957479 9.79389
1.18785 -1.0490299 7.8896899
-0.94384098 1.7812099 6.0935402
0.289076 1.03518 10.1217
0.740246 -0.88803297 9.76756
1.04284 -1.20525 7.90446
-0.60425198 2.0127101 5.1754298
0.268801 1.04589 10.1073
0.75569803 -0.86809802 9.8126602
1.38529 -1.0026 7.9847002
-0.68245 1.97175 5.4611702
-0.28080001 0.993375 10.0164
1.20479 -0.100203 9.7544603
1.35893 -0.99168098 7.95614
-0.98407501 1.82581 5.0827398
-0.20408501 1.02021 10.035
1.21251 -0.105872 9.7104998
1.12099 -1.26292 7.9851899
-0.98214 1.8152699 5.4550099
-0.474352 0.88660598 10.0148
1.20047 -0.044456601 9.7994299
1.09557 -1.24125 7.9504499
-0.60555899 1.9861799 5.7628498
-0.34330401 0.96427602 10.0246
1.2039 -0.060374402 9.7754402
1.24261 -1.08838 7.93436
-0.57514101 1.99238 5.8628502
-0.302389 0.97276902 10.0557
1.17681 -0.27163199 9.7538996
1.35928 -0.91906101 7.9173102
-0.918194 1.84249 5.6594701
-0.27869499 0.96644503 10.0919
1.17476 -0.30375099 9.7238503
1.07894 -1.25097 7.9472599
-1.09021 1.72431 5.8365698
-0.407487 0.91208899 10.0611
1.16494 -0.25018001 9.8385401
1.21541 -1.07742 7.9130902
-2.01617 -0.0189489 5.1441102
-0.38215601 0.91436797 10.0886
1.18032 -0.25184399 9.7603598
0.83951497 -1.4466799 7.9949498
-2.01107 0.098044403 4.9810901
-0.69384599 0.677634 10.0223
1.14767 -0.172405 10.0003
0.792027 -1.4315701 7.961
-1.9918 0.037231602 5.6770401
-0.63017601 0.74662101 10.0357
1.16031 -0.132672 9.9579802
0.63930798 -1.44675 7.9226999
-1.9823101 0.214237 5.5960898
-0.63655901 0.72846699 10.0586
1.14167 -0.20179801 9.9975796
0.76248097 -1.38463 7.9149399
-1.97829 0.33741999 5.3705101
-0.70033199 0.63308501 10.0918
1.13639 -0.264388 9.9544497
0.96138102 -1.37737 7.99264
-1.93378 0.57110602 4.93817
-0.572442 0.80320501 10.025
1.0653501 -1.2898 7.9714198
1.176 -0.032517198 9.9236603
-1.9373 0.415503 5.8088102
-0.52773702 0.83712 10.0373
1.02469 -1.28512 7.9456801
1.17047 -0.144499 9.9068003
-1.9090101 0.60543799 5.5222998
0.890939 -1.32986 7.92067
-0.49605599 0.85815501 10.0536
1.1603 -0.220705 9.8938303
1.40412 -0.710693 7.8751402
-1.91993 0.0568907 6.2557602
1.3698 -0.79535902 7.8822699
-0.49579501 0.85189801 10.0656
1.50766 -0.51130402 7.8807402
1.17375 -0.202327 9.8515902
-0.566764 0.70370299 10.1738
-1.9427 0.0376282 6.1687698
1.51317 -0.51293498 7.8835001
1.04329 -0.51448798 9.9310598
1.03732 -0.50898999 9.96696
1.0044 -0.60857999 9.8551998
1.47963 -0.70141101 7.9077401
1.07628 -0.49155301 9.8527098
1.38965 -0.82649499 7.9008002
1.09179 -0.41430199 9.9299698
1.55362 -0.50274801 7.9025402
1.08061 -0.41690499 9.9721203
1.0867 -0.44453999 9.8972998
1.08927 -0.42547801 9.9209099
1.5648201 -0.51283401 7.9109402
1.06982 -0.55813098 9.7021704
1.55522 -0.20132101 7.8669
1.09727 -0.51077098 9.7086802
1.56646 -0.20659401 7.87252
1.13631 -0.42124999 9.7092199
1.1309 -0.42526501 9.7279596
1.63064 -0.036548901 7.8989801
-0.66569602 0.61698598 10.1492
1.00984 -0.63288599 9.7680101
1.63383 -0.195041 7.9084301
-1.85095 0.48043099 6.2824998
1.55443 -0.31394601 7.87644
1.0705 -0.50813401 9.8345699
-0.492066 0.75794297 10.1841
-1.87432 0.45993301 6.2087102
1.54609 -0.436079 7.8863902
1.09317 -0.491732 9.77812
-0.51731801 0.75413501 10.1663
1.6082 -0.27544099 7.8996301
-1.9624701 0.055832598 6.0152102
1.12573 -0.39012799 9.8221502
-0.59418702 0.71383297 10.1368
1.1442 0.12563001 10.0162
1.61053 -0.32221001 7.9074602
-1.9376 0.25222999 6.0845799
1.72901 -0.102612 7.9846802
1.1467201 0.037497301 10.0342
-0.66434199 0.65904301 10.1092
1.70451 -0.162093 7.9640098
-1.91067 0.409675 6.07303
-0.50018001 0.81779498 10.1121
1.12251 0.23395599 10.0051
1.68713 -0.41217199 7.9916501
-1.90882 0.46077001 5.99334
-0.512474 0.82059997 10.0962
1.12984 0.166206 10.0395
-1.6242501 1.09237 6.16257
1.62888 -0.479812 7.9486899
1.12967 0.12705299 10.0634
-0.21793699 0.93204898 10.1736
1.67111 -0.165729 7.9341502
-1.63656 1.04002 6.2315698
1.13168 0.0107009 10.0809
-0.26777601 0.90528399 10.1809
1.65106 -0.089559898 7.9137201
-1.68641 1.04489 5.9474101
1.09139 0.25895301 10.0803
1.61514 -0.42570299 7.9282198
-1.63744 1.09676 6.0633798
-0.25582099 0.94812 10.1334
1.64288 -0.25831801 7.91853
1.13151 0.141964 10.0532
-1.76272 0.80176198 6.20679
1.45985 -0.869654 7.9658098
-0.28391501 0.94143099 10.126
0.99250698 0.52590299 10.0064
1.51673 -0.77221501 7.9635801
-1.8317 0.63930303 6.1992402
1.51914 -0.73691797 7.9469099
0.98962098 0.516653 10.0347
-0.33420801 0.85027301 10.2043
-1.76831 0.85946202 6.04108
1.46962 -0.78150302 7.9319601
0.97292697 0.53479803 10.052
-0.33298901 0.89893001 10.1502
-1.83918 0.68440902 6.05054
1.6124099 -0.61900598 7.9860802
0.965442 0.52095598 10.0842
1.62994 -0.53498399 7.9694099
-0.32692501 0.94076598 10.1008
1.07933 0.36253399 10.0028
-1.75661 1.01179 4.9967399
1.58833 -0.58208698 7.9479299
-0.387335 0.900859 10.1045
1.06882 0.36474201 10.0373
-1.7552 0.99958497 5.2769799
1.57678 -0.53238797 7.9247499
-0.80365002 0.51776201 10.0194
1.07175 0.34029499 10.0579
-1.87341 0.75334501 4.92169
1.74713 0.047266699 8.0043697
-0.73879403 0.612086 10.0441
1.75731 0.00062726397 8.0133801
-1.88928 0.68075597 5.40378
1.06536 0.33853501 10.0735
1.71369 0.32419801 8.0103703
-0.87143803 0.37322101 10.0143
0.97210199 0.41385999 10.1587
1.7607501 0.27866399 8.0599003
-1.62116 1.17371 5.80545
-0.84609902 0.41430801 10.0445
0.955679 0.45416901 10.1496
1.79097 0.0070811701 8.0616198
-1.69172 1.05522 5.8294802
1.82259 0.038029701 8.1231098
-0.78749597 0.50631201 10.0795
0.98848301 0.319787 10.1901
1.75855 0.440974 8.1246996
-1.83481 0.77907997 5.6796999
-0.723782 0.60237801 10.0902
1.77591 0.318813 8.1033001
0.98372298 0.388749 10.1611
-1.8188699 0.79272199 5.8392601
-0.85710299 0.37101099 10.0625
1.4895999 0.89298999 8.0373802
-1.6550699 -1.20521 5.24019
0.96475798 0.46648601 10.1306
-0.81839699 0.452189 10.0742
1.55805 0.75165498 8.0160303
-1.68887 -1.15613 5.1166301
0.93627 0.52426302 10.1217
1.58226 0.79466897 8.0813704
-0.94638503 0.0012631899 10.0104
1.62964 0.73698097 8.1001997
1.05743 0.27715001 10.1264
-1.58144 -1.27479 5.8359399
1.62353 0.66986501 8.0457201
-0.927073 0.11787 10.049
1.04871 0.35691899 10.0917
1.69681 0.51494598 8.0579901
-1.70789 -1.07766 5.7467198
-0.93206102 0.0276145 10.0555
1.68016 0.57033098 8.0675001
1.0944901 -0.017026 10.1427
-1.80761 -0.93412799 5.17768
1.72226 0.54772598 8.1223001
-0.91874099 0.073840298 10.0786
1.71516 0.77309299 8.3059797
-1.79009 -0.99473399 4.92102
1.06357 0.088263199 10.1722
1.58441 0.999524 8.32265
-0.91838998 0.20819999 10.02
1.80479 0.60487401 8.3559399
1.11178 0.00207618 10.1154
-1.76097 -0.96800399 5.8680401
-0.90696299 0.228818 10.0446
1.7671601 0.58957601 8.2461205
1.10667 0.11263 10.1094
-1.87594 -0.70035201 5.7972002
-0.918028 0.165289 10.0573
1.6174999 0.87046599 8.2221403
1.03917 0.19979499 10.176
-0.87906802 0.29645801 10.0742
-1.5609699 -1.19675 6.2457399
1.62353 0.81884098 8.1735497
1.05583 0.215837 10.1495
1.75615 0.55692101 8.19524
-1.6327 -1.1066999 6.1865201
-0.85114199 0.067181103 10.1832
1.07924 0.178673 10.1308
1.69056 0.65692502 8.1448498
-1.69855 -0.93553102 6.3028402
-0.87503999 0.075033799 10.1508
1.92311 0.027331701 8.3604898
1.09128 0.1936 10.1072
-1.79731 -0.73202002 6.24649
1.88412 0.00431239 8.2503405
-0.82766902 0.20700601 10.185
0.95004803 0.58677 10.0066
-1.5791 -1.21006 6.1521201
0.94713598 0.58288997 10.0251
1.84821 -0.016607501 8.1655102
-0.84743297 0.19727799 10.1625
-1.65189 -1.13255 5.98141
1.8460799 0.237817 8.2067804
0.77136803 0.763659 10.0106
-0.88739002 0.0507484 10.1364
-1.7651 -0.91701603 6.0100398
1.88477 0.34448901 8.3646898
0.84043598 0.704391 10.0121
-0.89966601 0.0679285 10.1149
-1.8109601 -0.79629999 6.0383801
1.83986 0.49664301 8.3432798
0.88260698 0.63706899 10.0671
-0.85572702 0.29240501 10.1186
1.81012 0.39075401 8.2059298
-1.93216 -0.096275099 6.2055602
0.93319499 0.577254 10.0685
1.78168 0.40397 8.1511002
-0.89144701 0.163129 10.1118
0.75521398 0.75403398 10.0682
-0.66997999 0.55653298 10.192
1.31372 1.07888 8.0104303
-1.9024301 -0.280103 6.2662101
0.838211 0.67961299 10.075
1.4005001 1.01255 8.0424299
-0.739223 0.48821101 10.1609
1.16856 1.23795 8.0404797
0.49228901 0.90994799 10.0358
-1.96033 -0.0250363 6.07655
-0.72064602 0.57591403 10.1176
1.24166 1.16208 8.0258198
0.56404501 0.884103 10.0211
1.3565201 1.1151201 8.0977001
-1.95283 -0.34717301 5.9310098
-0.77969497 0.49219501 10.1068
0.49711901 0.89837599 10.0622
1.4603 0.98582602 8.0877705
-1.92074 -0.35873401 6.1588998
1.20116 1.24547 8.0833502
-0.74844402 0.43609801 10.1847
0.60083598 0.85108399 10.071
-1.8655699 -0.439814 6.3014798
1.2030801 1.27873 8.1314297
-0.80670798 0.31717801 10.1734
-1.93343 -0.37366399 6.03861
0.671516 1.50653 8.0324402
0.63467997 0.847794 10.0295
-0.79087502 0.428386 10.1358
0.85907 1.43946 8.0470104
-1.86779 -0.60422301 6.1139898
0.73273402 0.78836602 10.0266
0.790398 1.48587 8.0727701
-0.844621 0.363305 10.0965
0.62090498 0.84872401 10.0527
-2.0173199 -0.034233801 5.0602598
0.80227202 1.49815 8.10151
-0.94430798 -0.091699302 10.0024
0.66922599 0.80870497 10.0735
0.90509403 1.40514 8.0305004
-1.9997 -0.10726 5.4920502
-0.94015098 -0.088238597 10.0198
0.537117 0.81566399 10.1608
1.00042 1.35025 8.0350199
1.0412 1.35141 8.0681896
1.0257 1.38249 8.1013899
0.94786698 1.53249 8.2969799
0.72389001 1.6267999 8.2991199
1.07901 1.45455 8.3009596
1.05665 1.44674 8.2513103
0.91789198 1.49981 8.1946001
0.70196003 1.5878 8.19028
1.11509 1.3721499 8.1765404
1.0748399 1.38766 8.1589403
1.48237 1.13956 8.3550196
1.43002 1.16063 8.2846804
1.50506 1.04111 8.23106
1.41285 1.1059999 8.1690998
1.27555 1.32617 8.3290701
1.19294 1.35605 8.2456102
1.19765 1.34412 8.2319498
1.25337 1.27222 8.1903496
0.54786599 1.525 8.0146999
0.62667602 1.51855 8.0315504
0.30464101 1.55848 8.0049496
0.37191501 1.57065 8.0294504
0.452326 1.59152 8.0789299
0.54630101 1.59368 8.1219702
0.220916 1.6222399 8.0925598
0.37138501 1.6061 8.0844402
-0.186726 1.53666 8.0192099
-0.167447 1.5687701 8.0570602
-0.32022399 1.54427 8.0766401
-0.173842 1.60586 8.1238804
-0.019639401 1.55732 8.0077496
0.0467516 1.59725 8.0567904
0.030344799 1.59978 8.0624704
-0.082811199 1.63501 8.1417398
-0.167978 1.68422 8.2954197
-0.37903699 1.65271 8.3444595
0.145595 1.7400301 8.3554401
-0.075341903 1.70073 8.2953501
-0.170113 1.66275 8.2410097
-0.34264699 1.60063 8.1950798
0.088177003 1.6755199 8.2021799
-0.057489701 1.65698 8.1859198
0.544833 1.68493 8.3292904
0.530303 1.6857899 8.3224697
0.48914301 1.6602401 8.2320805
0.439933 1.63432 8.1504002
0.379776 1.72027 8.3436499
0.187989 1.7226 8.3100996
0.34237999 1.66113 8.1882401
0.175063 1.6847 8.2119999
-0.51674402 1.41632 8.00774
-0.44188601 1.48509 8.0567598
-0.66821498 1.33614 8.0131798
-0.60407501 1.38662 8.0264702
-0.54444802 1.4739701 8.1084099
-0.55886 1.48654 8.13941
-0.77298099 1.32605 8.0835896
-0.60913199 1.44512 8.1117897
-1.11524 0.95810002 8.0356503
-1.05336 1.05454 8.0580902
-1.03851 1.07697 8.0633297
-1.0634201 1.0803699 8.1014996
-0.93777502 1.1288199 8.0100002
-0.79764098 1.2455601 8.0072298
-1.95207 -0.52477998 5.0258799
-0.90767199 1.21254 8.0757599
-1.92073 -0.62572098 5.2765698
-0.804461 1.30906 8.0876703
-1.98382 -0.15068901 5.7097998
-1.15004 1.1237 8.3134699
-1.98036 -0.17267101 5.7378402
-1.0939 1.16273 8.2669697
-1.9705 -0.365089 5.6223302
-0.95564198 1.31116 8.3081903
-1.88007 -0.66913801 5.8973598
-1.0231 1.2565399 8.3139601
-0.56751001 -2.0643499 5.2811999
-1.0699199 1.1436 8.1946497
-0.76700401 -1.98568 5.1261101
-1.1618299 1.0324399 8.1887197
-0.57455301 -2.0302999 5.8880401
-0.85629702 1.33425 8.1925297
-0.79604501 -1.9501801 5.6993699
-0.90607101 1.26947 8.1544199
-0.86905998 -1.93249 5.19315
-0.38353401 1.65221 8.34727
-0.93868703 -1.89213 5.1153402
-0.62350899 1.54365 8.32623
-0.84112799 -1.92695 5.69243
-0.44680199 1.55827 8.1900997
-1.10058 -1.77016 5.65418
-0.47620001 1.52511 8.1469297
-0.58639699 -1.9677401 6.23839
-0.76761699 1.46297 8.3407698
-0.70432299 -1.92286 6.2219801
-0.72416002 1.45989 8.2720404
-0.93667901 -1.78455 6.26442
-0.74217898 1.4288 8.2290697
-0.88927197 -1.8287801 6.2115998
-0.78852999 1.36094 8.15417
-0.55594403 -2.02582 5.9857402
-1.24902 0.72400302 8.0158195
-0.64510602 -1.98506 6.0115099
-1.13139 0.90467203 8.0067596
-0.98574197 -1.7862 6.1510701
-1.31616 0.534482 7.9967198
-0.88815397 -1.87356 5.9684601
-1.2884901 0.71197098 8.0562096
-1.46728 -1.3248 6.2357202
-1.27289 0.77736098 8.0902596
-1.42046 -1.35144 6.3105001
-1.2040499 0.89171302 8.0915499
-1.49639 -1.3583 5.9646802
-1.33962 0.60407299 8.0659599
-1.36017 -1.5023299 6.0395799
-1.3385299 0.66286099 8.1046495
-1.30575 -1.5055701 6.24756
-1.4570301 -0.0120753 8.0476904
-1.11043 -1.69294 6.1816101
-1.46147 0.033092801 8.0591097
-1.20768 -1.64288 6.01055
-1.45918 0.095095098 8.06353
-1.15132 -1.66803 6.14645
-1.49301 0.13142 8.1297903
-1.5308501 -1.38994 4.9304099
-1.41388 0.25634399 8.0234098
-1.4048001 -1.51719 5.40411
-1.38836 0.393314 8.0338202
-1.14518 -1.76367 4.9706602
-1.45411 0.246868 8.0795898
-1.18924 -1.7218601 5.0922799
-1.4135 0.451525 8.0951405
-1.55146 -1.32108 5.7392998
-1.5776 0.117286 8.3267202
-1.4781899 -1.40241 5.7828698
-1.57346 0.069312699 8.30509
-1.34446 -1.56357 5.6570501
-1.50107 0.46518701 8.2889299
-1.13941 -1.74464 5.5755901
-1.5437599 0.338294 8.3205204
0.658867 -2.1266401 5.4187799
-1.53653 0.23972601 8.2430696
0.52369499 -2.1572299 5.4734402
-1.53352 0.049297798 8.2019796
0.65644097 -2.1083801 5.7763901
-1.4847 0.43128499 8.2278099
-1.4838901 0.35419399 8.1855698
0.57275701 -2.13694 5.6356902
-1.32846 0.89301598 8.3338699
0.49202999 -2.16207 5.51088
-1.30589 0.89716297 8.2875795
0.28892899 -2.18419 5.2700601
-1.2378 0.92314303 8.1803102
0.37733299 -2.1552999 5.7719302
-1.23997 0.90048701 8.1580696
0.187047 -2.1844599 5.5306902
-1.43146 0.69275397 8.3275003
0.73722303 -2.0283999 6.2355299
-1.40535 0.69348401 8.26297
0.59638298 -2.0775399 6.1726098
-1.45599 0.54458302 8.2374802
0.47628599 -2.0940499 6.2109299
-1.40916 0.60611302 8.19312
0.42824399 -2.1066999 6.17419
-1.41508 -0.190595 8.0073204
0.69541401 -2.06389 6.1133099
-1.44391 -0.203595 8.0493898
0.60528898 -2.0948801 6.04006
-1.36937 -0.47881401 8.0230598
0.40412101 -2.11746 6.12182
-1.39534 -0.427883 8.0418396
0.31135499 -2.1499901 5.9236798
-1.46758 -0.185454 8.0861301
-0.46120501 -1.9968899 6.3143201
-1.49649 -0.066807397 8.1208296
-0.21696299 -2.08741 6.1841002
-1.42658 -0.519481 8.13029
-0.40484601 -2.08042 5.9237199
-1.43636 -0.49474999 8.13696
-0.189806 -2.1301999 5.9334002
-1.14229 -0.94582802 8.0212202
0.090968996 -2.11884 6.1855698
-1.23234 -0.783521 8.0104904
0.113231 -2.0981801 6.2775698
-1.1809 -0.989088 8.1103897
-0.114863 -2.1298599 6.0030198
-1.26223 -0.86630201 8.1204004
0.10523 -2.1341801 6.10183
-1.31988 -0.56924802 7.9990802
-0.44816899 -2.1062801 5.1673698
-1.31315 -0.67839801 8.0491304
-0.27492699 -2.1415501 5.3793001
-1.33907 -0.66449797 8.0795403
0.0334487 -2.1909499 5.0113001
-1.37717 -0.57439202 8.0811396
0.046402 -2.1860099 5.2312999
-1.37994 -0.84467602 8.3292999
-0.35953599 -2.1140201 5.5742998
-1.30288 -0.94506299 8.2926397
-0.37202001 -2.09443 5.84374
-1.42931 -0.76921099 8.3603601
-0.128204 -2.15241 5.7216601
-1.4385 -0.64053297 8.2506199
0.0873124 -2.17296 5.6559401
-1.33794 -0.827142 8.2139702
1.9042701 -1.33125 5.0053701
-1.25679 -0.92946202 8.1780596
1.72767 -1.53627 5.02246
-1.3995399 -0.681252 8.2037601
1.86926 -1.3157901 5.8965402
-1.35751 -0.73326802 8.1611404
1.7543 -1.46948 5.68225
-1.5693901 -0.057640899 8.2829704
1.54559 -1.68232 5.4742799
-1.557 -0.158581 8.2716398
1.4832799 -1.73839 5.3891501
-1.54625 -0.0567443 8.2245502
1.63044 -1.57857 5.8965702
-1.5044301 -0.26024601 8.1681995
1.46337 -1.73259 5.74755
-1.53782 -0.44156301 8.3454599
1.80893 -1.31112 6.2225699
-1.52727 -0.368047 8.2709904
1.70976 -1.4313 6.2101102
-1.50419 -0.37277001 8.21875
1.55293 -1.5687799 6.2589698
-1.44381 -0.50123399 8.1550703
1.45504 -1.68048 6.1701698
-0.989012 -1.11257 8.0062399
1.79389 -1.35645 6.1416202
-1.09622 -0.99142897 8.0096998
1.69118 -1.48816 6.0802202
-0.78220499 -1.32039 8.0312099
1.64605 -1.52858 6.1196699
-0.95456201 -1.18115 8.03932
1.5137 -1.66243 5.9938798
-1.06181 -1.1286 8.1097002
0.97145498 -1.96314 6.16189
-1.12421 -1.04843 8.1009102
1.0923899 -1.8921 6.2399101
-0.88124198 -1.29377 8.1024199
1.01642 -1.97814 5.9239302
-0.90166801 -1.2881401 8.1186104
0.93809402 -1.98812 6.08813
-0.39366001 -1.51596 8.0193996
1.2295001 -1.83013 6.17559
-0.52835101 -1.4766001 8.0413704
1.30782 -1.74461 6.3064599
-0.45360899 -1.54166 8.0923996
1.17147 -1.87914 6.1052699
1.27473 -1.82293 6.05685
-0.42535901 -1.5774 8.13237
0.89478099 -2.0676601 5.1455898
-0.60816699 -1.4162 8.0177402
-0.76102 -1.3105299 8.0036497
1.07065 -1.98821 5.3541799
-0.64430499 -1.4647501 8.1146402
1.16374 -1.94736 5.3260598
-0.79108799 -1.3615201 8.0946999
1.40274 -1.8063999 5.1345901
-0.55154502 -1.62843 8.3645296
0.895904 -2.0404601 5.7597899
-0.38487801 -1.66453 8.2810698
1.07812 -1.96477 5.7548099
-0.66611999 -1.57074 8.3544703
-0.69586301 -1.52136 8.2827702
-0.52461702 -1.5693901 8.1987
-0.36535901 -1.64414 8.2158499
-0.65968901 -1.51956 8.2303801
-0.63851398 -1.52525 8.2164097
-1.2034 -1.12036 8.3478699
-1.08227 -1.26162 8.3480501
-1.1864001 -1.07621 8.2367401
-1.05685 -1.21872 8.22439
-0.91079301 -1.41212 8.3565502
-0.90810299 -1.4048001 8.3367205
-1.0188299 -1.25533 8.2265797
-0.849608 -1.40469 8.23561
-0.31441799 -1.5301 7.9976201
-0.18514401 -1.6065 8.0605297
-0.0121034 -1.59314 8.0018902
0.077044398 -1.63569 8.0521498
-0.146741 -1.64854 8.1183205
-0.26638699 -1.61633 8.1116104
0.123396 -1.66992 8.1049805
-0.040117301 -1.6431201 8.0794001
0.55449098 -1.56821 8.0221395
0.51933098 -1.5982701 8.0519896
0.54587501 -1.62043 8.0995502
0.56324798 -1.63578 8.1337996
0.41441199 -1.61257 8.0376101
0.20867699 -1.62309 8.0300102
0.22398201 -1.64797 8.0683699
0.28840399 -1.66113 8.1010704
0.57245702 -1.7185 8.3312101
0.636639 -1.68011 8.2703304
0.40957099 -1.7643 8.36234
0.25335801 -1.73704 8.2563601
0.460522 -1.68967 8.1956701
0.66508198 -1.6426899 8.1991596
0.34374899 -1.72054 8.2330198
0.31575099 -1.69112 8.1626701
-0.35098299 -1.66475 8.2549496
-0.243917 -1.6982 8.2760201
-0.21287 -1.67979 8.2144604
-0.29333001 -1.6283799 8.1442604
0.0074964901 -1.75905 8.3291798
0.162534 -1.76586 8.3153696
-0.099644803 -1.68261 8.1625404
0.121276 -1.72018 8.2083702
0.77536798 -1.49043 8.0165501
0.67365599 -1.52781 8.0099497
1.04153 -1.3482 8.0155602
1.0024199 -1.40587 8.0560398
0.68901402 -1.56383 8.0665302
0.68245399 -1.58424 8.0960302
1.09017 -1.377 8.0933304
0.92138797 -1.48912 8.1061296
1.4478 -0.97743303 8.02458
1.39695 -1.06885 8.0542202
1.4242001 -1.07341 8.0950203
1.47051 -1.05952 8.1421604
1.2446899 -1.2029099 8.0301399
1.23439 -1.2369699 8.0573597
1.2654999 -1.24551 8.1045704
1.15887 -1.3270299 8.0918102
1.5743999 -1.07739 8.3651896
1.55531 -1.05033 8.2782698
1.3294899 -1.31912 8.32798
1.31372 -1.3011 8.2630901
1.45339 -1.14932 8.2435598
1.42467 -1.1321501 8.16992
1.2099299 -1.34053 8.17665
1.3046499 -1.24496 8.1512203
0.87969899 -1.61457 8.33249
0.76532602 -1.6345299 8.2632103
0.81688499 -1.59733 8.2276201
0.74250001 -1.5961601 8.16113
1.0285 -1.51972 8.2888899
1.13664 -1.45664 8.2966995
0.98477399 -1.4976799 8.1878996
0.96622503 -1.49378 8.15872
1.5674 -0.77833802 8.0179701
1.51283 -0.877909 8.0253801
1.6186 -0.63200802 7.9976201
1.6028 -0.71561998 8.0220299
1.65016 -0.78088498 8.1360798
1.51378 -0.97147501 8.1049004
1.73063 -0.53277302 8.0988598
1.66224 -0.70253301 8.1015196
1.7539901 -0.036031 8.0082502
1.77781 -0.101822 8.0493002
1.7958699 -0.138548 8.0839195
1.80892 -0.174063 8.1126299
1.72312 -0.299725 8.00214
1.69835 -0.5036 8.0358
1.75173 -0.41558301 8.0851803
1.7180901 -0.52202302 8.07129
1.90738 -0.28193799 8.36516
1.87167 -0.24806701 8.2614498
1.81279 -0.53002 8.2683401
1.84629 -0.39629999 8.27141
1.8695 -0.111116 8.2289495
1.82444 -0.243118 8.1524496
1.77114 -0.501504 8.1587496
1.81203 -0.32855001 8.1567297
1.6039 -1.03104 8.3566799
1.67339 -0.89072502 8.3196096
1.56401 -0.96330601 8.1821604
1.64915 -0.82378298 8.1823902
1.7563 -0.76883101 8.3631697
1.79636 -0.60560298 8.2949896
1.70311 -0.704422 8.17768
1.71714 -0.671929 8.1789999
1.92811 0.20412099 8.42169
1.95962 0.030543599 8.4776602
1.89492 0.36391601 8.4110403
1.93375 0.32320201 8.5020399
1.98832 0.23853099 8.6406898
1.98444 0.073471099 8.5771999
1.89694 0.49939799 8.5217304
1.94436 0.352198 8.5642996
1.6298 0.969854 8.3895502
1.75091 0.82091099 8.4731598
1.67774 0.97964698 8.5422201
1.7818 0.83589798 8.5940199
1.77956 0.740848 8.4461203
1.84636 0.56125897 8.4243402
1.84872 0.644741 8.5377502
1.9066401 0.57223201 8.6334
1.83004 0.88095999 8.8702097
1.7245899 1.05288 8.8670902
1.95617 0.578116 8.8396997
1.8733 0.772901 8.8279305
1.81929 0.84957099 8.7500601
1.72909 0.97719198 8.7051096
1.91092 0.66377097 8.7939196
1.84596 0.74836397 8.6765003
2.0669601 -0.01023 8.9020004
2.03443 0.246503 8.8425398
2.01984 0.1028 8.7244101
2.0129299 0.158602 8.7144203
2.00844 0.419045 8.8968
1.98107 0.52955699 8.8934898
1.96012 0.52203 8.7837801
1.97164 0.35635099 8.6667099
1.20215 -1.9134099 5.5763602
1.48365 1.153 8.3843498
1.5608701 1.0836101 8.4276304
-0.89964801 -0.317065 10.0273
0.55101401 0.820822 10.1475
1.35552 1.28067 8.3773603
1.23659 -1.87151 5.8705702
1.41686 1.2799 8.5040102
1.48251 1.26711 8.6375904
1.50261 1.24117 8.6315203
1.3116 1.38397 8.5439196
1.37805 1.35639 8.6253595
0.77972102 1.65248 8.4319296
0.89530802 1.60752 8.4416304
0.83660299 1.6734 8.5728998
0.80316699 1.70542 8.6345196
1.08895 1.49378 8.4131603
1.0680799 1.52393 8.4606504
1.08055 1.54217 8.5351801
1.11485 1.55636 8.6461296
0.97207397 1.7017601 8.91043
0.84722602 1.74086 8.8494101
1.19666 1.56785 8.8806105
1.07043 1.64509 8.8789997
0.90280497 1.7050101 8.7911997
0.81826299 1.71461 8.6914797
1.15926 1.56631 8.7781897
1.01113 1.62888 8.6757603
1.6890301 1.1051199 8.8615398
1.51647 1.2873 8.7991505
1.6427701 1.12193 8.7486801
1.48248 1.28083 8.6723099
1.44391 1.38467 8.9110804
1.29545 1.51003 8.9068699
1.37114 1.40807 8.7676296
1.30295 1.4615999 8.7529898
0.611835 1.68624 8.3763103
