# .PCD v0.7 - Point Cloud Data file format
VERSION 0.7
FIELDS x y z
SIZE 4 4 4
TYPE F F F
COUNT 1 1 1
WIDTH 1596
HEIGHT 1
VIEWPOINT 0 0 0 1 0 0 0
POINTS 1596
DATA ascii
-0.51481497 0.49378401 4.4710498
-0.50830901 0.52239799 4.4849501
-0.51102698 0.51065803 4.45117
-0.51810598 0.46642801 4.4611301
-0.498097 0.56880599 4.5011802
-0.51412201 0.45855999 4.5018401
-0.50045699 0.54367399 4.5165
-2.1468699 2.0992301 4.2045398
-0.506805 0.50119197 4.5167899
-2.15924 2.09817 4.2267499
-0.51324999 0.45487601 4.5344701
-2.04019 2.11639 4.2185898
-0.49558401 0.57459003 4.5283198
-2.1522 2.0977199 4.1923199
-0.49622101 0.544002 4.55688
-2.10674 2.1034 4.1831698
-0.52473801 0.39050701 4.5563202
-2.0306001 2.11184 4.1679702
-0.50515199 0.49361399 4.5504098
-2.08986 2.1012599 4.1592202
-3.26687 0.542238 4.4497299
-2.12605 2.09235 4.1474299
-3.2723899 0.58717799 4.4503002
-2.07214 2.0966699 4.1395402
-3.2597101 0.52131897 4.4600101
-2.05706 2.0913601 4.12818
-3.2692499 0.58179599 4.4567399
-2.0183699 2.1176801 4.2117
-3.2643199 0.567173 4.4716301
-1.973 2.12112 4.2368002
-3.2755301 0.65517199 4.45046
-1.9394 2.1228001 4.2299299
-3.2783699 0.709723 4.44769
-1.9005899 2.1242599 4.2128701
-2.02162 2.11377 4.1718702
-3.2736001 0.69035703 4.4598198
-1.90081 2.1213601 4.1794801
-3.27598 0.69434899 4.4527998
-1.95023 2.1145201 4.1582699
-3.27262 0.59143001 4.5296302
-2.00773 2.1084099 4.14645
-3.28 0.71287602 4.5392399
-3.27754 0.69220102 4.5218
-1.91265 2.10341 4.1296201
-3.27124 0.58312601 4.5058999
-2.6296201 1.84419 4.1091399
-2.30126 -1.0054801 2.1724701
-3.2745199 0.68327898 4.4953299
-1.9953099 2.1066501 4.1409702
-2.54409 1.86422 4.1181002
-2.2855799 -0.99832702 2.2098801
-3.2728 0.656672 4.4932299
-3.2715001 0.56878299 4.5483298
-3.27529 0.63015199 4.5478001
-3.27213 0.672445 4.4847999
-3.26738 0.59920198 4.4704299
-3.2721 0.68468702 4.4635801
-3.27194 0.68664098 4.4805298
-0.50057799 0.604482 4.4675298
-1.85783 2.12233 4.2135901
-0.499129 0.60065502 4.48244
-2.6192901 1.8282501 4.1132002
-2.3111401 -0.98243099 2.21048
-1.91082 2.1235299 4.23418
-0.49586999 0.69702399 4.4637098
-0.50093299 0.58615702 4.4559398
-0.497291 0.65843302 4.4582901
-0.493406 0.71051198 4.4832501
-0.49189499 0.6943 4.4953799
-0.49369901 0.628833 4.5032401
-0.49074 0.67846203 4.51017
-0.49351999 0.61370897 4.5189199
-0.49412999 0.59538603 4.5316701
-0.49085101 0.63324898 4.55689
-0.49402201 0.58720899 4.5529699
-0.48985499 0.67917001 4.52494
-3.2757699 0.77999401 4.447
-3.2749901 0.79122502 4.52247
-3.27279 0.83491802 4.5350699
-3.2778001 0.69121999 4.5573301
-3.2811 0.71375602 4.56881
-2.4960699 1.93336 4.1121202
-3.27988 0.72623098 4.5683699
-2.4544001 1.93857 4.1091099
-2.31815 -0.98559302 2.19859
-1.79404 2.1187301 4.2254701
-3.2769001 0.773812 4.54566
-2.5008299 1.90242 4.1097898
-2.28333 -1.0038199 2.2007401
-1.7896301 2.1187501 4.19554
-3.2771001 0.774849 4.5583901
-2.4129801 1.93927 4.1125798
-3.2771001 0.745902 4.5204701
-2.30568 -0.99645799 2.19067
-3.2749 0.780182 4.5114598
-3.2714901 0.83178103 4.5015998
-2.26753 -1.0130301 2.1986499
-3.2739601 0.75207102 4.4934001
-1.59305 -1.0283999 2.2233801
-3.2771299 0.72698802 4.4516602
-1.5302 -1.01572 2.17624
-3.2732401 0.79963398 4.4498801
-1.53767 -1.00928 2.19326
-3.2730701 0.73553699 4.4844999
-1.56589 -1.0255899 2.1999099
-3.2696099 0.77405399 4.4702902
-1.8673199 2.1220701 4.1870198
-2.4196501 1.92147 4.1215401
-1.48435 -0.998362 2.15378
-3.2727101 0.74010599 4.4623399
-1.87333 2.1194899 4.1638298
-1.49403 -0.99598098 2.16677
-3.27086 0.73782402 4.47403
-1.84688 2.1037099 4.1307001
-2.38587 1.8803999 4.0611701
-1.59105 -1.02264 2.22703
-0.49664801 0.748954 4.4689002
-1.79131 2.10849 4.1423702
-2.41555 1.86551 4.0552802
-0.49750301 0.77048397 4.4758201
-1.53777 -1.00072 2.20313
-1.7716399 2.1145101 4.1675
-0.49809599 0.77939498 4.46908
-2.5169799 1.8309 4.1180701
-1.4779201 -0.993604 2.1540501
-0.49506101 0.72710001 4.4572902
-1.78518 2.1148901 4.1652899
-2.4252901 1.86795 4.0981598
-0.49913999 0.80496103 4.4609399
-1.44807 -0.98844999 2.12341
-1.72102 2.11222 4.2091098
-0.49330601 0.73629099 4.4878302
-2.2611101 1.93246 4.0960898
-0.49401301 0.77843899 4.4953699
-1.46451 -0.97593498 2.1584301
-1.7300299 2.11164 4.2324901
-0.49503499 0.826478 4.5027499
-1.43731 -0.98028302 2.12008
-1.43928 -0.97161502 2.1335399
-1.5280499 -0.991458 2.2025001
-0.49389499 0.814551 4.5091901
-1.47174 -0.97040701 2.1674199
-0.489508 0.72798502 4.5106001
-1.44595 -0.96818602 2.1447301
-0.489308 0.74170601 4.5254698
-1.42483 -0.95979601 2.1252899
-0.49341401 0.82122701 4.54178
-1.47083 -0.97301197 2.1658101
-0.49032399 0.77700597 4.5385699
-1.48482 -0.96221602 2.18206
-0.488985 0.69086999 4.5565
-1.43841 -0.95847499 2.1405699
-0.49200901 0.67069799 4.57267
-1.44886 -0.954822 2.1541901
-0.48864201 0.73367602 4.55621
-1.50275 -0.96979302 2.1926
-0.49455199 0.78542799 4.5782199
-1.50901 -0.96318299 2.2102101
-3.26736 0.88319802 4.5308399
-1.41737 -0.94383901 2.12361
-3.25506 0.96320403 4.5171599
-2.32072 1.90339 4.0461898
-1.4181 -0.94325101 2.1277299
-3.2602701 0.92606199 4.5044098
-1.51906 -0.96732903 2.2105501
-1.6342 2.09886 4.2284999
-2.3825901 1.89473 4.1110802
-3.2679601 0.88013601 4.5381598
-3.27495 0.82056499 4.5593801
-3.2682199 0.88037199 4.5408001
-3.2511401 0.96868801 4.4915099
-3.25208 0.95831901 4.4886699
-3.2653601 0.87338102 4.45578
-3.2683101 0.86501002 4.4500399
-3.2474999 0.98041397 4.48034
-3.2673099 0.853329 4.4852901
-3.25964 0.89397103 4.4692402
-3.25896 0.90315098 4.4649
-0.50636202 0.88457298 4.46452
-0.51952702 0.970514 4.4734502
-0.50571102 0.88295197 4.47825
-0.50094497 0.84850001 4.4580102
-0.51420599 0.94890702 4.4572301
-0.50930601 0.917642 4.48558
-0.51204902 0.94504702 4.4916801
-0.50114697 0.88337499 4.5008001
-0.50194401 0.89261502 4.5064902
-0.50783998 0.935938 4.5204601
-0.498326 0.87413299 4.5227799
-0.51197201 0.96662301 4.5315099
-0.509619 0.95726597 4.5415502
-0.49604601 0.86272699 4.5416398
-1.46101 -0.95090503 2.2021501
-0.521088 0.98938102 4.4559202
-1.7012 2.1096001 4.1995602
-0.53310299 1.03812 4.45963
-1.40272 -0.93828499 2.1162601
-2.3671701 1.89631 4.1008501
-0.521321 0.98326898 4.4724598
-1.35022 1.86643 4.06429
-3.247 1.00885 4.5367699
-1.49533 1.92075 4.0447202
-3.2574799 0.96640003 4.5493598
-1.39898 1.88682 4.0483799
-3.2446401 1.02941 4.5524602
-1.29413 1.8414299 4.0750198
-1.73996 2.11268 4.1714902
-3.2354901 1.0556099 4.5397401
-1.40065 1.8946199 4.0968099
-1.69214 2.09235 4.1338401
-3.2374499 1.0443 4.52701
-1.3910201 1.8976099 4.1104999
-1.41794 -0.94032401 2.15785
-1.67305 2.0974901 4.1494002
-3.2311101 1.06867 4.5172901
-1.41071 1.90973 4.12079
-1.6948 2.0953901 4.1378398
-3.2412901 1.02763 4.5135899
-1.37437 1.89456 4.1201
-1.49406 -0.959382 2.2052901
-1.61808 2.09642 4.1847
-3.2386401 1.03495 4.4990902
-1.23063 1.88317 4.1099601
-1.39545 -0.934762 2.1247599
-1.61449 2.08793 4.1461802
-3.2407801 1.02143 4.4940701
-1.15943 1.82739 4.1170301
-3.2352901 1.03692 4.4545798
-3.23439 1.0407 4.48738
-3.2205901 1.08789 4.4760299
-3.2306199 1.0477 4.4668598
-3.22455 1.0763 4.4579902
-3.2421801 1 4.4717598
-0.522515 0.98986 4.4762201
-1.4047199 -0.93572599 2.1863899
-0.53972101 1.06434 4.4646502
-1.40611 -0.93666297 2.1633301
-0.53513902 1.04782 4.4846702
-1.4364001 -0.94385099 2.2200501
-0.529154 1.02975 4.4914298
-1.37799 -0.929048 2.13796
-0.52775401 1.0252301 4.4924402
-1.35914 -0.921983 2.1824501
-0.53285098 1.05656 4.5090899
-1.3994401 -0.93304002 2.2344501
-0.53068203 1.04801 4.5176001
-1.37173 -0.92541701 2.20841
-0.53839803 1.08046 4.52952
-1.33442 -0.91436797 2.1760099
-0.531358 1.05284 4.5327902
-1.33323 -0.91468799 2.1426401
-0.54355901 1.10412 4.5404801
-2.6241801 -0.83257198 2.12625
-0.51301599 0.98279202 4.5436201
-2.5882299 -0.85038799 2.1189699
-0.53238499 1.07278 4.5553598
-2.5645299 -0.86065799 2.1759501
-3.18683 1.2135 4.5395999
-2.5757401 -0.85512 2.20066
-3.2135201 1.14 4.5571799
-2.6411099 -0.823915 2.2413399
-2.6161799 -0.83608198 2.23066
-3.19135 1.20269 4.5503302
-2.6273401 -0.83041602 2.1866801
-3.19819 1.17844 4.5257401
-2.5490899 -0.86891001 2.1131201
-3.1735599 1.24435 4.5090699
-2.49739 -0.88903803 2.1693399
-3.21769 1.12149 4.5064902
-2.51456 -0.881832 2.1965301
-3.17154 1.24661 4.4974899
-2.5467899 -0.86793703 2.2231801
-3.1891799 1.19554 4.49266
-2.48472 -0.89414501 2.1489201
-3.20874 1.1384701 4.4489799
-2.44997 -0.906717 2.1515701
-2.4802799 -0.89565098 2.16659
-3.17202 1.23394 4.47645
-2.46226 -0.90199602 2.1750901
-3.18817 1.18695 4.4735799
-2.50214 -0.88605702 2.23228
-3.2089901 1.12949 4.4669399
-2.4539499 -0.90579998 2.11994
-3.1687801 1.24561 4.4539399
-2.44087 -0.90969098 2.16574
-3.18349 1.20049 4.4664898
-2.40518 -0.92049998 2.20226
-0.55482697 1.12222 4.4611502
-2.3987701 -0.92211902 2.2209201
-0.56855297 1.16208 4.4820199
-2.4005301 -0.922297 2.18715
-0.57108599 1.1679 4.46629
-1.29747 -0.903512 2.1358399
-0.59670597 1.24025 4.4782
-1.31459 -0.908939 2.1621699
-0.58002597 1.19726 4.48949
-1.3011301 -0.905056 2.15892
-0.56899399 1.17199 4.4979501
-1.2418801 -0.887182 2.1502299
-0.57800102 1.20226 4.5125198
-1.28943 -0.90194702 2.2179999
-0.55903703 1.14914 4.51126
-1.25117 -0.89023203 2.16292
-0.57902902 1.2061599 4.5220599
-1.32039 -0.91028202 2.20539
-0.55300802 1.13327 4.5349898
-1.2223901 -0.880054 2.12362
-0.58254999 1.2214 4.5476298
-1.22568 -0.88196999 2.15838
-0.54785198 1.12173 4.55509
-1.21578 -0.87851501 2.17538
-3.1675899 1.26133 4.5283899
-1.27589 -0.89810997 2.22259
-3.14095 1.31822 4.53861
-1.24035 -0.88788301 2.2170701
-3.1895599 1.19909 4.56604
-1.2168 -0.87807798 2.1296599
-3.1822 1.22084 4.5610299
-1.2 -0.87147897 2.12605
-3.16133 1.27428 4.5734701
-1.19954 -0.87284797 2.1796701
-3.1423299 1.31042 4.5712299
-1.17767 -0.86249501 2.1273301
-3.1410501 1.32038 4.5546899
-1.18626 -0.866368 2.1426499
-1.19368 -0.87123603 2.20944
-3.1275001 1.34401 4.5129099
-1.61867 2.09728 4.2132802
-1.17627 -0.86235201 2.14328
-1.34263 1.93955 4.1097498
-3.1480701 1.3004 4.51196
-3.14486 1.30547 4.5012002
-3.1609099 1.2667 4.48944
-3.1514299 1.28342 4.4510198
-3.1289899 1.32988 4.48066
-3.15236 1.28063 4.4807701
-3.1559 1.27016 4.4636202
-3.1215701 1.34438 4.4547
-3.1237199 1.33717 4.4665699
-0.63139302 1.31532 4.4619198
-0.61430299 1.27844 4.4780698
-0.64928299 1.3504 4.4707398
-0.652987 1.36025 4.4791198
-0.65445399 1.36821 4.4916101
-0.61628699 1.29049 4.4976802
-1.60888 2.0941801 4.2227998
-0.62476301 1.31191 4.5097299
-0.62884903 1.32142 4.5163002
-1.51016 2.0698299 4.2298198
-0.602516 1.26996 4.5376401
-1.5178601 2.05422 4.1301699
-0.63263297 1.33512 4.5605898
-1.18171 -0.865264 2.1674399
-1.49524 2.0673101 4.2018399
-0.62680697 1.3198 4.5383501
-0.57088703 1.1795501 4.5704398
-0.59074098 1.24628 4.5721502
-0.62650102 1.31586 4.5694098
-0.61382198 1.28838 4.5767298
-3.1120999 1.37674 4.52739
-3.0638001 1.45637 4.5166202
-3.099 1.39733 4.5092902
-3.1009901 1.3930399 4.5002699
-3.1029899 1.3849699 4.4875202
-3.09481 1.39359 4.4546199
-3.04004 1.48559 4.4783101
-1.32391 1.94595 4.1090002
-3.0516601 1.46412 4.4737701
-1.17031 1.82579 4.1213002
-3.0710199 1.44519 4.5307598
-1.2842799 1.9075 4.1117902
-3.1121199 1.37753 4.5448399
-1.20298 1.88162 4.1093502
-3.0720401 1.44502 4.5427899
-1.3418601 1.96629 4.1114101
-3.0682399 1.4371001 4.4594002
-1.25814 1.92603 4.1114502
-3.0595701 1.45178 4.4572401
-1.22422 1.91698 4.11484
-3.05127 1.46508 4.46174
-1.09381 1.7762901 4.1193199
-0.71745801 1.47183 4.4574599
-1.19013 1.8912801 4.1129498
-0.68029201 1.40818 4.4789801
-1.23125 1.9293 4.1195202
-0.69323498 1.42792 4.4701099
-1.118 1.86218 4.1198301
-0.69982201 1.45148 4.5254202
-2.4379499 1.95944 4.1114702
-0.70583701 1.46145 4.53091
-1.20894 -0.87743503 2.2075701
-2.5442901 1.926 4.1207399
-0.674496 1.41278 4.54703
-1.5931799 2.0896201 4.1694298
-1.1768301 -0.86433899 2.1849
-2.4985099 1.9509701 4.1217899
-0.65680897 1.3807 4.5387301
-2.33583 2.0022399 4.112
-1.1748101 -0.86265498 2.16996
-1.5914201 2.0863099 4.1578102
-0.69891399 1.44001 4.4802799
-2.36026 1.98908 4.1105499
-1.188 -0.86888301 2.20912
-0.69486898 1.43748 4.4930902
-1.50737 2.0517499 4.1304002
-2.4239099 1.98599 4.1216302
-0.71538699 1.47462 4.5004401
-1.1828001 -0.86661202 2.2021699
-2.3847001 1.99795 4.1189299
-0.69644397 1.44373 4.5052099
-1.5056 2.06812 4.1722598
-1.17635 -0.86971098 2.2249
-2.2950499 1.9935 4.1095099
-0.65472198 1.37413 4.5074601
-1.4959 2.0648799 4.1649799
-1.16158 -0.856727 2.1366899
-2.31198 1.98718 4.10952
-0.70390099 1.45654 4.4446602
-2.98893 1.56458 4.5374599
-3.0446401 1.49076 4.5433798
-3.0077901 1.54461 4.5522699
-2.99124 1.56603 4.5493202
-3.0190599 1.52335 4.5197501
-2.99386 1.5568399 4.5127101
-3.0148399 1.5280401 4.5047598
-2.98669 1.56408 4.4969902
-2.98507 1.56308 4.4878802
-2.9795599 1.56888 4.4827499
-3.00615 1.53009 4.47404
-3.0392101 1.487 4.4456601
-3.02964 1.4981 4.46275
-2.9607 1.5909899 4.4507298
-1.4729 2.0585301 4.2298999
-1.16706 -0.86397099 2.17102
-2.96506 1.58443 4.4649501
-2.3020599 1.97569 4.1152701
-2.32476 -0.619681 4.2577901
-1.17889 -0.86817902 2.2224901
-0.73097497 1.49042 4.4697199
-0.72820503 1.48736 4.4741902
-0.77092999 1.54638 4.46418
-0.78320199 1.56204 4.47612
-0.79446799 1.57995 4.4876599
-0.73874599 1.50921 4.5000501
-0.72401899 1.4870501 4.45012
-0.79441297 1.58125 4.4555001
-0.80287403 1.5965 4.5067501
-0.74278003 1.51573 4.51016
-0.760746 1.54084 4.5243301
-0.73486799 1.50596 4.5243201
-0.78993899 1.58074 4.53828
-0.69293398 1.44626 4.5545101
-0.76322901 1.55086 4.5542302
-2.3710899 1.9527 4.1146898
-2.9554501 1.60762 4.5339398
-2.9671199 1.59521 4.5450802
-2.18629 2.04265 4.1111202
-2.9486799 1.61673 4.5489001
-2.1617401 2.0420899 4.10884
-2.89343 1.67875 4.5356498
-2.3298399 2.0239899 4.12432
-2.87555 1.6950901 4.5078902
-2.2464099 2.0448999 4.1203098
-2.93275 1.63153 4.50141
-2.2167101 2.01088 4.1097498
-2.9133101 1.65091 4.4931898
-2.1741099 2.0263901 4.1095099
-2.94052 1.61858 4.48738
-2.2348299 2.0049801 4.1099401
-2.89183 1.66898 4.4761
-2.2125299 1.99227 4.1206598
-2.95136 1.6027 4.4746099
-2.39029 -0.59865499 4.2394099
-2.23243 1.94028 4.0946698
-2.9565599 1.5969 4.4442902
-1.17057 -0.87077498 2.2072201
-2.2185299 -0.64158702 4.3025699
-2.20451 1.9399199 4.0459599
-2.94541 1.60811 4.4605899
-1.15841 -0.86074501 2.14779
-2.2058301 -0.63930398 4.3226099
-2.2588 1.94171 4.1152501
-2.8880899 1.6714799 4.44767
-1.16381 -0.86373001 2.1651399
-2.38783 -0.591178 4.2843599
-2.24389 1.94068 4.1033502
-2.87815 1.68241 4.4688101
-1.1745 -0.87012601 2.2197599
-2.3150201 -0.61757499 4.2841501
-2.0441899 2.0444 4.1097298
-0.83962297 1.63252 4.4616299
-1.16379 -0.870983 2.1836801
-2.3422401 -0.598517 4.3159699
-2.0194499 2.04248 4.1122999
-0.85320401 1.64505 4.4721398
-1.1576999 -0.86674798 2.1607499
-2.2820499 -0.61507398 4.33676
-2.10921 2.0200601 4.11763
-0.85017103 1.64188 4.4693398
-1.1548001 -0.86563897 2.1528001
-2.3085301 -0.62333697 4.26612
-2.06111 1.97217 4.0686598
-0.88252902 1.6797 4.4854798
-1.1694601 -0.87324703 2.2161701
-2.2318799 -0.64511198 4.2744498
-2.1227701 1.96424 4.0775099
-0.84073502 1.6351 4.4902902
-1.15669 -0.85486603 2.13012
-2.1732099 -0.66034901 4.27073
-2.1975601 1.96042 4.12218
-0.87417799 1.67477 4.4984398
-1.1447099 -0.86620301 2.14575
-2.17804 -0.65535599 4.2876501
-2.0952899 1.97892 4.1150098
-0.81276703 1.60498 4.4552398
-1.15219 -0.87439799 2.1898899
-2.1387601 -0.658306 4.3104701
-1.9601901 1.98536 4.0936499
-0.83334798 1.62906 4.4535298
-1.14263 -0.86848199 2.1549599
-2.1099701 -0.67367601 4.2688899
-1.98498 1.98197 4.0782599
-0.88461602 1.68756 4.5081201
-1.15689 -0.87460101 2.19662
-2.1315999 -0.66578901 4.28688
-2.03771 1.98283 4.105
-0.86776102 1.66948 4.5183902
-1.14485 -0.85088402 2.1107199
-2.11603 -0.67148399 4.2749801
-1.95261 1.9877 4.0995498
-0.887909 1.69236 4.52283
-1.14757 -0.860888 2.13041
-2.0714099 -0.66421998 4.3319502
-1.86127 1.98594 4.0753598
-0.83717799 1.63717 4.5323601
-1.13886 -0.85428298 2.1092
-2.1468899 -0.648265 4.3543901
-1.90602 1.99734 4.11623
-0.81460798 1.61234 4.54772
-1.13807 -0.856498 2.11182
-2.0387101 -0.66595399 4.3575201
-1.7933 1.9838099 4.0867701
-0.7895 1.58482 4.5538702
-1.13359 -0.86756098 2.1444399
-2.11203 -0.66443199 4.3066201
-1.80418 1.98795 4.1017699
-2.83497 1.7341 4.5232801
-1.14133 -0.87453997 2.1910901
-2.0940399 -0.66512299 4.3131199
-1.74471 1.9786299 4.0773201
-2.8015499 1.7653199 4.53757
-1.13455 -0.86905098 2.1528201
-2.0120499 -0.68734998 4.25349
-1.6502 1.9661 4.085
-2.90504 1.66515 4.5577202
-1.14568 -0.87517202 2.1941199
-2.07464 -0.67766398 4.2814698
-1.7689 1.98681 4.10322
-2.89219 1.67735 4.57165
-1.13021 -0.85478997 2.1026101
-1.99072 -0.68217999 4.30304
-1.7306 1.98154 4.1013799
-2.8542299 1.7174 4.5735102
-1.13186 -0.86499 2.1335399
-2.03811 -0.67439002 4.31036
-1.52021 1.92883 4.0428801
-2.8231399 1.7467 4.5580902
-1.12923 -0.86838502 2.1526599
-2.0430901 -0.68330401 4.2644501
-1.5916899 1.95275 4.0827398
-2.79545 1.7711999 4.5446301
-1.11954 -0.866732 2.1522901
-2.0553 -0.68075103 4.2779298
-1.68774 1.97975 4.1108298
-2.7681201 1.7931 4.5050502
-1.13746 -0.87565601 2.2157099
-1.97656 -0.68870598 4.2822199
-1.53179 1.9408799 4.0985799
-2.8510499 1.7182 4.5042901
-1.12058 -0.86047798 2.1157601
-1.98975 -0.68431097 4.2959099
-1.53417 1.99958 4.11341
-2.8055999 1.75844 4.4984999
-1.12103 -0.86298501 2.1271501
-1.9749 -0.67750698 4.3215899
-1.75061 2.0507901 4.1096001
-2.84621 1.7188801 4.48631
-1.11695 -0.863603 2.1327901
-1.9232301 -0.67542303 4.3484802
-1.6734 2.0466199 4.1092
-2.83306 1.73035 4.4848599
-1.1082 -0.86338598 2.14575
-1.91837 -0.67793 4.3316398
-1.61282 2.0315199 4.1094899
-2.8640299 1.7011 4.48071
-1.1067899 -0.85951197 2.1205101
-1.8665299 -0.69594198 4.2291899
-1.64157 2.02404 4.11378
-2.8356099 1.7232701 4.44138
-1.09877 -0.86266202 2.1609001
-1.96498 -0.69060099 4.2645202
-1.5961699 2.0148799 4.1135702
-2.8327899 1.7255599 4.4569998
-1.12928 -0.87409699 2.2186601
-1.87394 -0.69326901 4.2683702
-1.53067 1.94583 4.1108899
-2.7644601 1.78731 4.4484901
-1.08746 -0.864003 2.2059901
-1.96408 -0.68394101 4.30299
-1.4217 1.97597 4.1094999
-2.8057101 1.75059 4.46876
-1.08541 -0.85228902 2.1099701
-1.91488 -0.68302798 4.3127298
-1.4500999 1.97633 4.1120801
-0.90682203 1.70402 4.4678402
-1.08758 -0.856529 2.13627
-1.8904901 -0.69189101 4.2796602
-1.54146 2.01893 4.10921
-0.91449702 1.7111 4.4777498
-1.09637 -0.86118102 2.15256
-1.86537 -0.68638998 4.30691
-1.44375 1.9666899 4.1166401
-0.94540799 1.7389801 4.46703
-1.05773 -0.84913999 2.1417401
-1.87688 -0.68953001 4.29353
-1.45412 2.0027599 4.1095099
-0.97664201 1.77156 4.4965901
-1.05406 -0.84779203 2.13903
-1.8354501 -0.68473297 4.30794
-1.45239 1.9974101 4.1089702
-0.91579902 1.7132699 4.48456
-1.04927 -0.84996498 2.1769199
-1.74192 -0.67358798 4.3271198
-1.59535 2.0462601 4.1110802
-0.97317398 1.76863 4.4974599
-1.07363 -0.85904402 2.1898799
-1.8471299 -0.68094498 4.3241501
-1.52698 2.0308101 4.1116099
-0.959907 1.75783 4.5028701
-1.02174 -0.83855599 2.1554501
-1.83675 -0.68963802 4.2901502
-1.4279 2.0040901 4.1131301
-0.90995699 1.7128 4.5040002
-1.04493 -0.84360999 2.1263399
-1.82435 -0.68563497 4.30266
-1.51483 2.03812 4.1160798
-0.90730703 1.71167 4.52245
-1.02859 -0.840065 2.18501
-1.80442 -0.69190401 4.2695098
-1.57235 2.0613899 4.1234198
-0.89933503 1.70348 4.4503298
-1.01223 -0.83191001 2.1616099
-1.80758 -0.689031 4.2850199
-1.41663 2.0113001 4.1197701
-0.98734301 1.78268 4.4519801
-1.0227799 -0.83747101 2.1738801
-1.70418 -0.68490899 4.2515402
-1.28672 1.89486 4.1202502
-0.98147398 1.77986 4.5486398
-1.03581 -0.84615898 2.18471
-1.73989 -0.68562299 4.27773
-1.32654 1.97738 4.1213298
-0.98690599 1.78391 4.5321202
-1.03045 -0.83921498 2.2020299
-1.69902 -0.66732103 4.3278699
-1.36078 1.9871401 4.11622
-0.89087403 1.69831 4.5552101
-1.01903 -0.83294499 2.1807201
-1.72122 -0.66993803 4.33146
-1.2526 1.94643 4.1243
-0.83826399 1.64019 4.5604501
-1.02202 -0.83112299 2.19017
-1.6582299 -0.66036099 4.3315101
-2.1289799 2.06424 4.1142902
-0.94745499 1.74915 4.5596099
-1.00702 -0.81925702 2.1840601
-1.70539 -0.67793399 4.2958999
-2.06866 2.0627401 4.1107202
-0.90192097 1.70916 4.5603399
-1.00227 -0.81686097 2.20561
-1.62564 -0.65900397 4.31847
-2.1933401 2.0624101 4.1238699
-2.7509 1.80733 4.5262098
-1.0300699 -0.83310401 2.2165401
-1.71357 -0.68221998 4.2856898
-2.07464 2.07797 4.1187301
-2.6887801 1.85279 4.5138302
-1.0094301 -0.82102901 2.2095499
-1.61312 -0.66239101 4.3015599
-2.0169201 2.0496199 4.1096601
-2.7617099 1.7979701 4.5072098
-0.98778999 -0.822528 2.13184
-1.6781 -0.68091202 4.2638602
-2.00001 2.0734799 4.1115198
-2.6931701 1.84718 4.4949999
-0.98527098 -0.817747 2.1471801
-1.6574301 -0.67775798 4.2543201
-1.8956 2.0762 4.1106
-2.7369201 1.81495 4.49611
-0.99971998 -0.823102 2.16011
-1.59726 -0.66489899 4.2845302
-2.11432 2.0806501 4.1259298
-2.7358301 1.81248 4.4821801
-0.99300998 -0.81180298 2.16485
-1.5905 -0.66163099 4.29251
-1.93504 2.0906799 4.1187301
-2.72208 1.82024 4.4739799
-0.98905402 -0.81181598 2.1591799
-1.5889601 -0.66629702 4.2620201
-1.96386 2.06125 4.10918
-2.69842 1.83663 4.4688501
-1.00271 -0.82879001 2.1080201
-1.59542 -0.66694099 4.2747698
-1.9112099 2.0536499 4.1097598
-2.6744699 1.85383 4.4574399
-0.97656202 -0.81671703 2.0980799
-1.58746 -0.66620702 4.2676401
-1.94631 2.04496 4.1134
-2.68505 1.85646 4.5339298
-0.99904501 -0.81505603 2.1726401
-1.51143 -0.63273102 4.3223901
-1.96762 2.0411501 4.1150298
-2.78368 1.7823499 4.5542898
-0.97807503 -0.81946701 2.11658
-1.5353 -0.63758802 4.3246598
-1.87519 2.0683999 4.1089902
-2.66729 1.8695199 4.5373101
-0.98025697 -0.820557 2.1208
-1.52486 -0.63190401 4.3352299
-1.79558 2.0482099 4.1106601
-1.00828 1.80186 4.5307798
-0.97864002 -0.81376898 2.1465299
-1.57417 -0.65576702 4.2991099
-1.85181 2.0390601 4.1179399
-1.10349 1.8723 4.5232902
-0.94521999 -0.80274802 2.1291001
-1.52474 -0.639943 4.31074
-1.91443 2.1010599 4.1264701
-1.10085 1.8704 4.5374799
-2.7367799 -0.773938 2.18378
-1.5437 -0.65514398 4.2515101
-1.81137 2.0747001 4.1111598
-1.0065399 1.80193 4.55479
-2.7711899 -0.75245601 2.2211499
-1.55291 -0.65583098 4.2869201
-1.77475 2.0817299 4.1142802
-1.0865901 1.85145 4.4716702
-2.8368199 -0.70924097 2.2825201
-1.5319 -0.64745897 4.2950902
-1.86005 2.09097 4.1178002
-1.08294 1.85448 4.4973202
-2.7054701 -0.79027802 2.15202
-1.51819 -0.65139502 4.2741599
-1.8438801 2.0694001 4.10885
-1.08988 1.85437 4.4741998
-2.7037899 -0.79148799 2.1842799
-1.51367 -0.65004802 4.2753401
-1.69163 2.02525 4.1175098
-1.02841 1.81431 4.4987202
-0.98839301 -0.80833697 2.1841099
-1.44367 -0.627864 4.2867298
-1.69454 2.06443 4.1115298
-1.04562 1.82391 4.4577098
-0.97014397 -0.80176002 2.184
-1.47401 -0.63647902 4.2522202
-1.63676 2.0525401 4.1103702
-1.03923 1.81665 4.4697199
-0.96607 -0.80066699 2.18767
-1.49055 -0.64364302 4.2690601
-1.7773 2.08618 4.11731
-1.0992399 1.86868 4.5143299
-0.99063301 -0.81152099 2.2018001
-1.44438 -0.62981099 4.2669802
-1.70634 2.0843101 4.1220598
-1.04274 1.82618 4.5087399
-0.976004 -0.803918 2.15576
-1.45529 -0.63234502 4.2814398
-1.6428601 2.07585 4.1230502
-0.99231398 1.7861 4.45331
-0.97014499 -0.80134797 2.15466
-1.45636 -0.62058699 4.3161302
-2.2855 -0.62860298 4.1628199
-1.08146 1.85799 4.4455199
-0.9666 -0.80223799 2.1512699
-1.3653001 -0.58397102 4.33179
-2.30883 -0.62575001 4.1858201
-2.5997801 1.9112 4.5343299
-0.967399 -0.80003399 2.1556599
-1.43337 -0.61546999 4.3088899
-2.28075 -0.63518602 4.1890802
-2.67399 1.86614 4.5432601
-0.96163499 -0.79753101 2.1670201
-1.42566 -0.61099899 4.3133898
-2.38782 -0.595469 4.1719499
-2.64464 1.88703 4.5482302
-0.96133798 -0.79838097 2.1739199
-1.43374 -0.62009102 4.2982602
-2.3589201 -0.60782897 4.1868
-2.5944099 1.9167 4.5465798
-0.96501702 -0.80028999 2.15325
-1.34471 -0.58228803 4.3151698
-2.3296199 -0.61350101 4.1628399
-2.5813601 1.92222 4.5277801
-0.95529199 -0.80022299 2.181
-1.4015 -0.61295003 4.2563901
-2.27054 -0.62071598 4.1378698
-2.5701399 1.92778 4.50667
-0.96359998 -0.80003101 2.1851299
-1.35202 -0.59371197 4.2893901
-2.1823399 -0.65441197 4.16224
-2.6394401 1.88612 4.50492
-0.95875299 -0.80089301 2.14975
-1.38564 -0.60465002 4.2940798
-2.3919401 -0.58232999 4.1431198
-2.55901 1.93327 4.4979
-0.95030397 -0.79937297 2.1702299
-1.39408 -0.61061102 4.2622099
-2.3780301 -0.58177602 4.1343198
-2.60151 1.90644 4.4913702
-0.95845902 -0.79734498 2.16467
-1.34235 -0.590994 4.26612
-2.1597199 -0.665887 4.19383
-2.55604 1.93068 4.4800901
-0.94614202 -0.80160201 2.13711
-1.36008 -0.59829003 4.26965
-2.2448299 -0.64622802 4.2178102
-2.62731 1.8867199 4.4753098
-0.950077 -0.800246 2.15028
-1.36228 -0.59889197 4.2839699
-2.30831 -0.62774301 4.21277
-2.63362 1.88148 4.4681602
-0.95094198 -0.79961699 2.17259
-2.5848701 -0.50020897 4.2462001
-2.39801 -0.595779 4.21278
-2.6510899 1.87088 4.4623899
-0.94957101 -0.80259103 2.18841
-2.5035801 -0.546619 4.23247
-2.19453 -0.64367402 4.1438899
-1.14802 1.89904 4.4453101
-0.94615799 -0.803523 2.1914301
-2.5335 -0.51942998 4.2935901
-2.3655901 -0.58140397 4.1300802
-1.176 1.91576 4.4458599
-0.95773703 -0.80493098 2.20135
-2.41922 -0.56104702 4.3445601
-2.3643301 -0.573219 4.1231699
-1.1197799 1.87582 4.4785199
-0.950661 -0.80737698 2.2060399
-2.60882 -0.476515 4.2859201
-2.2625899 -0.61061603 4.1261902
-1.20557 1.93038 4.4915299
-0.94103003 -0.79993099 2.1677899
-2.5850301 -0.486779 4.2994499
-2.0939701 -0.67186701 4.1678901
-1.18557 1.9198 4.4981399
-0.94002497 -0.798805 2.1566801
-2.54089 -0.50832099 4.31707
-2.0829301 -0.675345 4.1756601
-1.20374 1.92715 4.4819999
-0.93862301 -0.80073798 2.17395
-2.5120299 -0.51857698 4.3330798
-2.0713899 -0.66660899 4.1457801
-1.14066 1.88893 4.4596701
-0.93649 -0.79803598 2.1498301
-2.46398 -0.55482501 4.2864499
-2.0722301 -0.672849 4.16008
-1.21593 1.9322799 4.4668999
-0.93943501 -0.802091 2.1831601
-2.43729 -0.56197602 4.3067498
-2.1589999 -0.66649598 4.2215099
-1.18133 1.91844 4.5091
-0.93310797 -0.801184 2.2010701
-2.5766799 -0.50210297 4.26231
-2.0732 -0.67816502 4.1866698
-1.14153 1.89499 4.51228
-0.94363898 -0.80629498 2.2073801
-2.65295 -0.45313501 4.2747202
-2.13604 -0.67074102 4.2140002
-1.12629 1.8866 4.52107
-0.92569703 -0.79531503 2.1682701
-2.42296 -0.582766 4.2497101
-2.10112 -0.64811701 4.1284699
-1.11904 1.88227 4.5272999
-0.92616898 -0.79660499 2.1803999
-2.45983 -0.55910498 4.27741
-2.0569 -0.66494602 4.14012
-1.19406 1.92817 4.5407
-0.93635303 -0.798172 2.1542699
-2.36008 -0.588772 4.3252501
-2.2486601 -0.61161703 4.1241698
-1.06971 1.85058 4.55053
-0.91148502 -0.78577203 2.1400101
-2.3671999 -0.57983798 4.3524699
-2.1075699 -0.64401603 4.1255898
-1.13973 1.89741 4.5481501
-0.91913599 -0.79325002 2.17641
-2.4019899 -0.57282299 4.3248
-2.0204899 -0.68690097 4.2066798
-2.5259199 1.9533499 4.5332799
-0.911834 -0.79037601 2.2112999
-1.32205 -0.56964701 4.3222799
-2.1051199 -0.675318 4.2335
-2.5452001 1.9447 4.5488
-0.92563498 -0.79829198 2.21381
-1.3593301 -0.579943 4.3376598
-2.15258 -0.66792601 4.2269101
-2.4489 1.99194 4.5458202
-0.91350102 -0.78950202 2.1691301
-1.2541 -0.53265798 4.3390398
-2.2386899 -0.64717197 4.2525201
-2.5253 1.9536901 4.5191002
-0.90797001 -0.78723001 2.1895001
-1.3182499 -0.57287198 4.3094101
-1.97842 -0.686427 4.1735702
-2.43029 1.9980299 4.5089402
-0.89347202 -0.77747101 2.1561899
-1.26398 -0.54230499 4.3243198
-1.99868 -0.68724298 4.1908698
-2.4678199 1.97975 4.5018201
-0.90407997 -0.78395998 2.1666701
-1.32969 -0.58078498 4.3025799
-2.0146201 -0.67618901 4.1487198
-2.46295 1.98132 4.4984498
-0.88659799 -0.76878297 2.1029201
-1.24692 -0.538728 4.3122201
-1.90432 -0.68780297 4.1659999
-2.4885299 1.96749 4.4928398
-0.90222001 -0.78006297 2.1328001
-1.32664 -0.58467102 4.2644801
-2.0128901 -0.65928203 4.1274199
-2.45102 1.98157 4.4789801
-0.89733797 -0.78110301 2.19204
-1.31506 -0.57810199 4.29111
-1.93357 -0.67565101 4.1416998
-2.4855499 1.9647501 4.4765601
-0.88953602 -0.777147 2.20625
-1.30575 -0.57317001 4.2925901
-1.93029 -0.66415101 4.1280699
-2.45979 1.9742399 4.4657502
-0.90922201 -0.789123 2.21715
-1.25081 -0.54672801 4.26055
-1.89791 -0.691778 4.1865301
-2.4861701 1.96167 4.4627299
-0.89365602 -0.77856803 2.1728599
-1.24134 -0.54275203 4.2681198
-1.92619 -0.69196999 4.20402
-2.3118 2.04248 4.5225801
-0.88329297 -0.77245998 2.1744299
-1.2165999 -0.530451 4.2698998
-1.93522 -0.692433 4.2225699
-2.3719299 2.0222299 4.5339499
-0.87714499 -0.76751202 2.15342
-1.25954 -0.552414 4.2830901
-2.0718999 -0.679712 4.24615
-2.4850399 1.97482 4.5566802
-0.88061798 -0.77043003 2.1647799
-1.1875401 -0.50546402 4.31672
-1.94881 -0.69211298 4.2420101
-2.4205201 2.0063 4.5728502
-0.87823403 -0.76421499 2.1072199
-1.20479 -0.51168299 4.3278899
-1.90526 -0.603854 4.1293998
-2.40818 2.00934 4.5504599
-0.85873502 -0.75469702 2.1354899
-1.21366 -0.52516502 4.3031201
-1.89232 -0.60171801 4.1308098
-2.3916399 2.0138099 4.5555601
-0.865372 -0.76049501 2.1533201
-1.16794 -0.496034 4.3091798
-1.87287 -0.60497302 4.1291299
-2.3545499 2.0281999 4.5405798
-0.86819398 -0.762339 2.1803501
-1.20477 -0.523 4.2614002
-1.83468 -0.66897601 4.1326299
-2.3201699 2.0383201 4.5109601
-0.859097 -0.75578898 2.1919401
-1.17028 -0.50079298 4.29567
-1.75972 -0.670995 4.1402202
-2.3478301 2.0278599 4.50109
-0.88117999 -0.77197498 2.2014
-1.14733 -0.48535201 4.30229
-1.84931 -0.68250197 4.1510301
-2.3670599 2.0197699 4.4963498
-0.86825103 -0.76253098 2.17149
-1.18223 -0.509345 4.26508
-1.75117 -0.679645 4.1574898
-2.3884101 2.01159 4.49367
-0.87094897 -0.76464701 2.1732399
-1.14346 -0.48555401 4.2694101
-1.845 -0.68871999 4.1718898
-2.40746 2.0024099 4.4844098
-0.85718399 -0.75404799 2.15201
-1.1092499 -0.46423599 4.2745399
-1.82138 -0.66140997 4.1262298
-2.3755801 2.0113399 4.47751
-0.86298299 -0.75874799 2.15975
-1.1123199 -0.46596 4.2879801
-1.8093801 -0.68871701 4.1838102
-2.3016 2.0336399 4.4646602
-0.852171 -0.75049502 2.1314399
-2.66979 -0.44613299 4.2589102
-1.79827 -0.68903899 4.1909199
-2.3389101 2.0201001 4.4570699
-0.83686399 -0.73950201 2.1056199
-2.6614201 -0.44570601 4.2815599
-1.84561 -0.694049 4.21662
-1.32625 1.98871 4.4868002
-0.85322702 -0.74681902 2.1805699
-2.7467799 -0.38766599 4.2657199
-1.6395 -0.64333498 4.1276202
-1.41675 2.01952 4.4747601
-0.85627502 -0.751432 2.1879799
-2.6889601 -0.41793799 4.3060999
-1.7125601 -0.65830499 4.1315498
-1.3020999 1.97623 4.4819102
-0.85341197 -0.75006998 2.20227
-2.76735 -0.368312 4.2793498
-1.655 -0.65407699 4.1357698
-1.39466 2.01594 4.48946
-0.84211099 -0.74277598 2.1428101
-2.6444299 -0.44619799 4.3172898
-1.6427701 -0.66194099 4.1501698
-1.42274 2.0222199 4.4773698
-0.84256601 -0.74359101 2.13325
-2.7599001 -0.36622399 4.30406
-1.65984 -0.66876602 4.16502
-1.32065 1.98998 4.5022101
-0.85120797 -0.746746 2.16453
-2.62833 -0.452564 4.3336401
-1.72379 -0.67537498 4.1554799
-1.31218 1.98577 4.5000701
-0.85202497 -0.74540597 2.1762099
-2.6262701 -0.45444399 4.3278899
-1.7256401 -0.68417698 4.1943498
-1.4687999 2.04422 4.4976401
-0.84867501 -0.73984498 2.1689701
-2.6675701 -0.42825699 4.3298702
-1.80777 -0.69231498 4.2256899
-1.47014 2.04705 4.5146098
-0.84813601 -0.73593301 2.19028
-1.10381 -0.45342901 4.3233399
-1.63067 -0.668863 4.1870298
-1.40425 2.0239401 4.51719
-0.84975201 -0.73948503 2.188
-1.04392 -0.407316 4.3299899
-1.68366 -0.67928201 4.2106299
-1.30013 1.9824899 4.53229
-0.84934902 -0.747141 2.15449
-1.1345201 -0.46925101 4.3302398
-1.61191 -0.66820002 4.2093401
-1.2515 1.95741 4.5094099
-0.84462202 -0.74316603 2.1483099
-1.07188 -0.43566501 4.3020101
-1.72394 -0.68657702 4.2277999
-1.37069 2.01249 4.5226202
-0.84814203 -0.738087 2.16976
-1.028 -0.39843601 4.3213201
-1.79563 -0.69183499 4.2305899
-1.29564 1.9802999 4.5392199
-0.84528399 -0.73474503 2.1618299
-1.09241 -0.452705 4.2851
-1.75266 -0.68923599 4.2494702
-1.42721 2.03339 4.5420399
-0.84085602 -0.72631699 2.17853
-1.03798 -0.409628 4.3054399
-1.55485 -0.63246399 4.1340098
-1.47729 2.0499699 4.5205002
-0.84180599 -0.72918397 2.1938701
-1.0282201 -0.40518799 4.2659898
-1.5355901 -0.61992002 4.1272402
-1.38835 2.01718 4.56604
-0.84227902 -0.72890699 2.18998
-1.00504 -0.38765201 4.25844
-1.5605299 -0.63599098 4.1374102
-1.34446 2.00488 4.5662098
-0.84174901 -0.731071 2.19521
-1.0661401 -0.433117 4.2766299
-1.57774 -0.64913601 4.1504998
-1.2944 1.9793 4.55902
-0.84216303 -0.73833901 2.1995299
-0.994488 -0.379657 4.27918
-1.54835 -0.64427203 4.1579499
-1.24295 1.95453 4.54175
-0.84304398 -0.73156202 2.1571801
-1.01767 -0.396772 4.28512
-1.58496 -0.65570498 4.1658602
-1.43002 2.0343399 4.5633602
-0.83959401 -0.72535098 2.1656499
-2.8029001 -0.34118199 4.2657199
-1.54729 -0.64875698 4.17558
-1.35788 1.99826 4.4677
-0.83824301 -0.72432202 2.16959
-2.7825501 -0.349913 4.2939701
-1.4985501 -0.63784802 4.1838398
-1.29381 1.97015 4.4724102
-0.84116298 -0.73461097 2.14995
-2.8417499 -0.307565 4.2609701
-1.56827 -0.65776497 4.2039299
-1.30128 1.9731801 4.4679899
-0.83922601 -0.73018497 2.14977
-2.84149 -0.30349699 4.2758498
-1.51758 -0.64602798 4.2175102
-1.4635201 2.03404 4.4647598
-0.83594501 -0.72401702 2.18682
-2.8115599 -0.323282 4.2959399
-1.54783 -0.65485299 4.2396102
-1.24635 1.94756 4.4654198
-0.829804 -0.729029 2.1953599
-2.86519 -0.275729 4.29387
-1.6121 -0.66913801 4.24123
-1.21866 1.94371 4.5552301
-0.84018803 -0.73601902 2.19908
-2.7216301 -0.38830701 4.3369999
-1.43167 -0.59102899 4.1293502
-2.26577 2.0559001 4.51931
-0.83759302 -0.72998399 2.1466801
-2.78794 -0.339035 4.3187599
-1.41717 -0.59577101 4.14044
-2.2379401 2.06217 4.51477
-0.83216298 -0.72065198 2.15008
-0.95190299 -0.33534601 4.3217101
-1.4614201 -0.61230499 4.1417298
-2.2341399 2.0625 4.5096302
-0.83025098 -0.71798003 2.1533999
-0.95745301 -0.336335 4.3350801
-1.37266 -0.58825803 4.1565099
-2.1614101 2.07528 4.4881701
-0.83685899 -0.73978698 2.12309
-1.04998 -0.40756199 4.3415999
-1.42874 -0.61140198 4.1664
-2.2752299 2.04775 4.48878
-0.83104002 -0.73293298 2.13148
-0.981929 -0.35506099 4.3435302
-1.4033099 -0.60591602 4.1814399
-2.16241 2.0728099 4.4819002
-0.82842201 -0.73341399 2.1212699
-0.94883698 -0.335127 4.3144202
-1.36972 -0.59451598 4.1865301
-2.2734499 2.04335 4.4726
-0.82791197 -0.72972399 2.12866
-0.94186097 -0.32624799 4.3222699
-1.40681 -0.61034101 4.2070298
-2.2807801 2.0406799 4.4686999
-0.83264202 -0.72540098 2.1409299
-0.95251501 -0.34182999 4.2909398
-1.34654 -0.58817297 4.2048202
-2.19134 2.0603001 4.4632502
-0.82812899 -0.71694303 2.1470101
-0.961007 -0.34883201 4.3008599
-1.3687201 -0.597408 4.2294898
-2.24031 2.0631101 4.5353098
-0.82658398 -0.72234499 2.1329701
-0.98966402 -0.37600601 4.2802
-1.48052 -0.63694501 4.24612
-2.2664101 2.05901 4.5475402
-0.82590902 -0.71725601 2.178
-0.96998101 -0.35813001 4.2849498
-2.60321 -0.49337801 4.1975298
-2.2634101 2.0588801 4.54282
-0.83082998 -0.72015202 2.1837001
-0.98857599 -0.375404 4.2625299
-2.4677801 -0.56152499 4.1717601
-2.1432199 2.0850899 4.5249901
-0.82499802 -0.72277498 2.18993
-0.95058298 -0.34130701 4.2737899
-2.4947901 -0.55039603 4.1830001
-2.2343299 2.0683701 4.5529499
-0.82629502 -0.71573901 2.1649301
-0.92811102 -0.320066 4.25069
-2.6407199 -0.470406 4.1923399
-2.0855999 2.0975499 4.5492201
-0.81506097 -0.71018797 2.17098
-2.89241 -0.26184499 4.2507401
-2.63625 -0.47051701 4.17101
-2.07618 2.0966401 4.5385699
-0.81417602 -0.706689 2.1450801
-2.87466 -0.27126101 4.2810202
-2.5483799 -0.51824701 4.1575298
-2.0882599 2.0929301 4.5209999
-0.80839902 -0.70601898 2.16745
-2.9455099 -0.19887599 4.2660699
-2.5149 -0.54236001 4.1977501
-2.05884 2.0957601 4.5095601
-0.82549399 -0.718211 2.1342299
-2.88433 -0.253187 4.3032799
-2.53527 -0.53302002 4.20014
-2.06551 2.0938799 4.5030599
-0.81466901 -0.70737398 2.13346
-2.88746 -0.25445199 4.2874799
-2.59905 -0.495556 4.2114
-2.06882 2.0910101 4.4948001
-0.81156099 -0.72201401 2.10958
-2.8589201 -0.276723 4.31951
-2.58006 -0.50603902 4.2225699
-2.0657001 2.0884399 4.4862399
-0.818286 -0.72384799 2.1199801
-2.94801 -0.183182 4.3136401
-2.5329399 -0.52385199 4.1510501
-2.1170299 2.0801301 4.4826102
-0.81541502 -0.713431 2.1258199
-2.9016199 -0.233422 4.3081198
-2.49809 -0.54277802 4.1584501
-2.09602 2.0797 4.47438
-0.82072598 -0.721385 2.12549
-2.8703599 -0.26875401 4.3356299
-2.64832 -0.448733 4.1408801
-2.14416 2.0680001 4.4533501
-0.815813 -0.72156799 2.18979
-2.7776501 -0.34942299 4.3491602
-2.6247799 -0.46084601 4.1382899
-2.1117799 2.0724399 4.45507
-0.81619799 -0.713467 2.1801901
-2.8771601 -0.25938901 4.3269701
-2.4795101 -0.53500003 4.1319199
-1.91234 2.1108699 4.5408502
-0.80944002 -0.721003 2.1057401
-2.94996 -0.182781 4.29882
-2.4893701 -0.53495002 4.1370902
-2.0081201 2.1055 4.5512199
-0.79451603 -0.712107 2.1828101
-0.881262 -0.27028099 4.3243399
-2.5749199 -0.48181301 4.1296902
-1.94938 2.1091599 4.5508299
-0.80729598 -0.72017097 2.1921
-0.84420502 -0.222881 4.3432202
-2.55673 -0.48599201 4.1250401
-1.94363 2.1084399 4.53122
-0.80658698 -0.70662701 2.1709099
-0.82670403 -0.205539 4.3393998
-2.4820299 -0.52094603 4.12221
-1.92502 2.10727 4.5153198
-0.80840302 -0.72399801 2.1984899
-0.84874302 -0.238883 4.3111401
-2.43364 -0.580715 4.2287202
-1.9280601 2.1053901 4.5043702
-0.802876 -0.71129698 2.1145999
-0.799187 -0.182118 4.3232598
-2.49387 -0.45011699 4.1305799
-1.8887399 2.1033599 4.4926
-0.79435802 -0.70484501 2.11306
-0.81515002 -0.204411 4.3013
-2.4133601 -0.478946 4.1353898
-1.95832 2.09691 4.4846401
-0.80685598 -0.70635802 2.1227801
-0.82799703 -0.216754 4.30931
-2.33671 -0.519063 4.1313901
-1.9230601 2.0963199 4.4798999
-0.79631197 -0.70209002 2.1171401
-0.84132302 -0.233501 4.28478
-2.24614 -0.55286801 4.1297402
-1.91954 2.09515 4.4769502
-0.79687899 -0.71225202 2.1066699
-0.81682003 -0.206571 4.29706
-2.3426199 -0.50514102 4.1367798
-1.9045399 2.09168 4.4661598
-0.79541701 -0.70726401 2.1730599
-0.829427 -0.22009499 4.2581
-2.19225 -0.54932898 4.1374698
-1.8869801 2.09091 4.46033
-0.78959298 -0.70665598 2.1737001
-0.83414698 -0.225252 4.2635498
-2.20262 -0.55254197 4.1349101
-1.9423 2.1071801 4.5637002
-0.79024798 -0.711402 2.18365
-0.80311799 -0.19135199 4.27672
-2.3719599 -0.49276799 4.1374698
-1.9378099 2.1057701 4.57128
-0.78859103 -0.69966501 2.1159599
-3.02635 -0.097506396 4.2603598
-2.31407 -0.50176001 4.1327
-1.8277299 2.1079099 4.52526
-0.776124 -0.696805 2.1120801
-2.99054 -0.14907999 4.2504101
-2.2160599 -0.53060502 4.1319599
-1.75946 2.10408 4.5247202
-0.77705997 -0.70545399 2.18243
-3.0246899 -0.096938901 4.2680802
-2.0676401 -0.59060502 4.1292801
-1.88279 2.1135299 4.56779
-0.77587903 -0.705948 2.19118
-2.97824 -0.149468 4.2947998
-2.0921199 -0.56708401 4.1363001
-1.82524 2.1071899 4.5636702
-0.785712 -0.71363002 2.2033899
-3.0425 -0.070804499 4.2743502
-2.0973799 -0.57061797 4.13691
-1.8189501 2.1092501 4.55093
-2.84043 -0.70633298 2.3065701
-3.0376401 -0.069127299 4.30334
-2.0791399 -0.55608702 4.1307802
-1.8338799 2.10712 4.5169001
-2.9790201 -0.59514397 2.1924601
-2.97015 -0.158094 4.3023
-1.93607 -0.58563399 4.1374202
-1.8349299 2.1059101 4.5089402
-0.799101 -0.69756699 2.12673
-2.92154 -0.214733 4.3333101
-1.9343801 -0.57248098 4.13164
-1.86367 2.1043899 4.4965301
-0.81076902 -0.70420599 2.14381
-2.9999199 -0.118904 4.3156199
-1.82164 -0.573282 4.1322498
-1.87867 2.0966499 4.47679
-0.794182 -0.69696403 2.1577899
-3.0412099 -0.069109902 4.2839098
-1.86588 -0.57758301 4.13308
-1.77422 2.09693 4.4885001
-0.80219603 -0.701078 2.1568999
-0.73913199 -0.10676 4.31844
-1.76897 -0.59336501 4.1322498
-1.76483 2.0896699 4.4719601
-0.79945999 -0.70149398 2.1644399
-0.72150999 -0.082195401 4.3231502
-1.65626 -0.56163198 4.1351399
-1.86659 2.0915899 4.4629302
-0.796736 -0.69736701 2.1228499
-0.79390198 -0.17426699 4.3270702
-1.67715 -0.56661302 4.1359401
-1.80878 2.0873899 4.4547
-0.79258698 -0.69395 2.1309099
-0.74467099 -0.115578 4.2504702
-1.6317199 -0.56783497 4.13557
-1.7166899 2.09232 4.4909101
-0.79027402 -0.69238198 2.1357501
-0.782812 -0.16687401 4.30164
-1.7363501 -0.59157503 4.1314602
-1.65808 2.0807199 4.4812398
-0.79117602 -0.69295502 2.1406701
-0.73859602 -0.107469 4.3108401
-1.5136499 -0.53143799 4.1364002
-1.67179 2.0852599 4.4886699
-0.790277 -0.69526899 2.1528201
-0.76002198 -0.136538 4.2672501
-1.5680799 -0.54636699 4.13694
-1.71799 2.0997 4.53195
-0.78310502 -0.69530803 2.1519899
-0.78126103 -0.164783 4.27282
-1.6045001 -0.55748802 4.1373701
-1.69329 2.0947499 4.5173402
-0.78720999 -0.697667 2.1580701
-0.74578202 -0.118314 4.2849898
-1.60159 -0.56318402 4.1343699
-1.61114 2.0813799 4.5075798
-0.78917903 -0.697927 2.1183
-0.71520698 -0.078472003 4.2886701
-1.4459 -0.49937001 4.1326699
-1.61094 2.0692501 4.47017
-0.78280801 -0.69382501 2.1227601
-3.06007 -0.0477755 4.26442
-1.40172 -0.493415 4.1367302
-1.6976399 2.0799899 4.4612498
-0.78191501 -0.693012 2.1328001
-3.12129 0.045910001 4.2467899
-1.48571 -0.52927101 4.1356401
-1.62447 2.0849299 4.5226002
-0.77926499 -0.69300902 2.13608
-3.06938 -0.028172299 4.2765498
-1.42319 -0.50708902 4.1356502
-1.72465 2.10323 4.5473599
-0.78322101 -0.69433099 2.1471901
-3.0572701 -0.0519845 4.2653999
-1.38494 -0.57546002 4.1301999
-1.72041 2.10274 4.54668
-0.78021902 -0.69831198 2.15874
-2.9919801 -0.135267 4.3324199
-1.36538 -0.484146 4.1356702
-1.6647201 2.07533 4.46103
-0.779185 -0.70074201 2.1651199
-3.108 0.036544099 4.3200202
-1.28941 -0.53070498 4.1277599
-1.59183 2.07442 4.4955902
-0.76863801 -0.69375199 2.1213601
-3.0546501 -0.049675699 4.3235402
-1.3317 -0.54905403 4.1263399
-1.57163 2.0657301 4.4841399
-0.77956003 -0.69365299 2.1273501
-3.04162 -0.073367 4.3345499
-1.28248 -0.53591901 4.1350002
-1.4798 2.0479701 4.4978299
-0.77668601 -0.69526398 2.1489401
-2.97664 -0.156542 4.3361001
-1.33 -0.567976 4.1492
-1.60199 2.08147 4.5297298
-0.773996 -0.695126 2.1484599
-3.0583799 -0.046601601 4.32939
-1.23955 -0.52990103 4.1609001
-1.51472 2.05917 4.5190802
-0.77077198 -0.69972199 2.16921
-3.0599301 -0.0390919 4.2869201
-1.27828 -0.55165601 4.1714501
-1.54085 2.06512 4.5151501
-0.76474297 -0.698183 2.1831
-3.09953 0.0278247 4.2987499
-1.32177 -0.573955 4.18151
-1.53239 2.0622001 4.5069299
-0.76359302 -0.69348103 2.1559
-3.0966699 0.0230815 4.29637
-1.67659 2.0970399 4.5504699
-1.22127 -0.52667499 4.1838999
-1.58359 2.0797999 4.5472898
-0.75704199 -0.69011199 2.1582899
-3.06654 -0.025938001 4.2925501
-1.5157 2.0633399 4.5490198
-1.2972701 -0.564762 4.2017498
-0.75608897 -0.68638301 2.1291201
-0.69579202 -0.0456811 4.25172
-1.54995 2.05705 4.4756999
-1.53851 2.05267 4.4688802
-1.54989 2.0539601 4.4570799
-1.58574 2.0616701 4.45052
-1.45971 2.0455599 4.5524802
-2.3234 -0.60262299 4.5801101
-2.29317 -0.609824 4.5832701
-1.30984 -0.57169002 4.2179198
-2.2947099 -0.61740601 4.5676498
-1.32587 -0.58105099 4.2347202
-2.35391 -0.59247601 4.5827498
-1.4208699 -0.61747599 4.2438998
-2.2592599 -0.623245 4.5824199
-1.19604 -0.476897 4.12466
-2.25367 -0.62429303 4.5848298
-0.75194299 -0.68592203 2.1465199
-1.22273 -0.50141603 4.13065
-0.70376098 -0.059922099 4.3119402
-2.24542 -0.62172699 4.60007
-0.74545997 -0.683222 2.1889901
-1.11493 -0.444181 4.1377301
-0.68038601 -0.0174495 4.3272901
-2.2388599 -0.61816698 4.6157699
-0.75973898 -0.69604599 2.2053599
-1.22171 -0.516653 4.14961
-0.70482802 -0.055298299 4.3292298
-2.3301599 -0.597435 4.5879898
-0.75412399 -0.69085699 2.19484
-1.14889 -0.47872099 4.1636801
-0.64217001 0.043893799 4.2511601
-2.2985201 -0.59484297 4.6149998
-0.74543798 -0.68253201 2.16396
-1.1587501 -0.48644 4.1686401
-0.70640302 -0.065249003 4.2745199
-2.2457299 -0.63425398 4.5679102
-0.72857898 -0.66839898 2.18436
-1.1363 -0.47526699 4.1772499
-0.68194598 -0.0264831 4.2930498
-2.2117901 -0.64297402 4.5706301
-0.73537302 -0.67232603 2.1500599
-1.20471 -0.51738799 4.1872001
-0.67622799 -0.016543301 4.3044701
-2.2146599 -0.642946 4.57586
-0.72390801 -0.66337699 2.16958
-1.18041 -0.50445801 4.2012801
-0.648399 0.030342801 4.3153601
-2.16501 -0.65534198 4.5685
-0.72385597 -0.65866101 2.1152
-1.11814 -0.468445 4.21843
-0.64990002 0.027334301 4.2775302
-2.18027 -0.648987 4.59062
-0.716241 -0.65312999 2.13592
-2.1841199 -0.64745998 4.5922799
-2.1752901 -0.648013 4.6117301
-2.1651499 -0.650998 4.6348701
-2.24488 -0.61452103 4.6249399
-2.2033999 -0.63414299 4.6312299
-2.1519201 -0.65878302 4.5715299
-2.1500599 -0.65889698 4.5794301
-2.14294 -0.65990299 4.5778799
-2.14223 -0.65700901 4.6016698
-2.07794 -0.66820902 4.5631599
-2.1215601 -0.656654 4.60818
-2.15165 -0.65492702 4.6451998
-2.0806501 -0.66411 4.5858302
-2.03824 -0.659944 4.5939598
-2.03213 -0.654459 4.6066399
-2.0822201 -0.65193701 4.6523099
-1.17287 -0.50204301 4.2361698
-2.09551 -0.65260798 4.65099
-2.0493801 -0.671161 4.56388
-1.24325 -0.54179603 4.2469702
-2.02479 -0.66560602 4.5827298
-3.1440699 0.092502303 4.2525501
-2.7595301 -0.385943 4.2255201
-1.99692 -0.67509902 4.56603
-0.70670497 -0.64522803 2.1900301
-3.1742401 0.154349 4.2563801
-2.7220399 -0.41443199 4.1976199
-2.0018301 -0.67143601 4.5742102
-0.72475702 -0.66468602 2.1844001
-1.9744101 -0.67119998 4.58042
-1.9584399 -0.66931999 4.5953002
-2.00155 -0.65487599 4.6132202
-1.97865 -0.65882897 4.6389899
-2.0279 -0.64760798 4.6506701
-1.965 -0.662054 4.6490998
-1.9134099 -0.67839301 4.5612502
-3.1686299 0.158572 4.3048902
-1.9291101 -0.671745 4.6122398
-3.1410799 0.101117 4.3116298
-1.90222 -0.67961103 4.5796199
-3.12185 0.053769398 4.3286099
-3.14888 0.111427 4.3210001
-1.91473 -0.67782199 4.5838099
-3.12795 0.069505602 4.2755799
-1.91919 -0.67379498 4.62533
-3.14973 0.109348 4.2678299
-1.93484 -0.670277 4.6254201
-3.16853 0.157038 4.2911301
-1.87823 -0.680758 4.6097102
-3.1505899 0.121324 4.2915101
-1.86057 -0.67641801 4.6161599
-3.1169801 0.053664401 4.2863202
-1.82429 -0.67104697 4.6011701
-3.1684599 0.152871 4.2817798
-1.87694 -0.68118298 4.5727501
-0.62954599 0.066355698 4.2634101
-1.87616 -0.68100899 4.5508699
-0.61764503 0.091044098 4.2645798
-1.78027 -0.66387302 4.60075
-0.62521601 0.073363498 4.2730699
-1.79612 -0.66086298 4.6375299
-0.63500601 0.0522562 4.3151102
-1.77133 -0.65597099 4.6139798
-0.58288097 0.163762 4.33077
-1.86269 -0.67746103 4.6448002
-0.63301897 0.065685801 4.3352699
-0.58283502 0.158674 4.2870498
-1.8017499 -0.67412901 4.5764499
-0.61029601 0.101108 4.2961798
-1.76652 -0.67187399 4.5735602
-0.59369302 0.13535801 4.2985401
-1.75975 -0.67399597 4.5665698
-0.57523102 0.173731 4.3165698
-1.73357 -0.65608603 4.6031199
-1.72009 -0.650563 4.62676
-3.1659701 0.134942 4.3357201
-1.76253 -0.65122497 4.6414299
-3.22576 0.29104099 4.31394
-1.69849 -0.65107602 4.6494799
-3.21665 0.26808599 4.3136802
-1.71719 -0.66653299 4.5808001
-3.15083 0.100442 4.3432798
-3.1889801 0.177981 4.33991
-1.72177 -0.66091001 4.5911398
-3.2330799 0.295935 4.3342299
-1.70684 -0.65912998 4.5971298
-3.18224 0.174244 4.2603698
-1.7065901 -0.66944498 4.5731101
-3.21962 0.27088901 4.2526999
-1.63473 -0.65996802 4.56317
-3.19098 0.20370699 4.3141499
-1.64274 -0.66238201 4.5721502
-3.1900899 0.21077199 4.2996502
-1.62345 -0.65970498 4.5781498
-3.1763401 0.163654 4.2701502
-1.6270601 -0.65532398 4.61374
-3.20646 0.237867 4.26156
-1.6132801 -0.65498501 4.6498699
-3.20753 0.25560001 4.2929201
-3.1960599 0.224462 4.29002
-1.65737 -0.65332502 4.6461
-3.1767299 0.170682 4.2811198
-1.61458 -0.65636098 4.6023302
-3.1982601 0.22646201 4.2816501
-1.61033 -0.65845197 4.5798898
-0.56189698 0.221802 4.2522302
-0.55864 0.225492 4.2683601
-1.57243 -0.64274698 4.6017299
-0.54989702 0.24608199 4.2803998
-1.5603 -0.632828 4.6207199
-0.56840301 0.193505 4.3211999
-1.58674 -0.64564103 4.6122298
-1.55337 -0.64322001 4.57547
-0.54208601 0.278391 4.34023
-1.54843 -0.64112598 4.5658102
-0.558792 0.220679 4.3225999
-1.60098 -0.65388101 4.59062
-0.56187898 0.22357699 4.3395
-1.56657 -0.64478898 4.5809202
-0.55028898 0.24453101 4.2821398
-1.52378 -0.62351203 4.5970201
-0.55735397 0.221894 4.2952099
-1.51254 -0.61406201 4.6086102
-0.55383903 0.23051301 4.3032298
-3.22347 0.28547499 4.2625799
-1.54712 -0.62605202 4.6553798
-2.74546 -0.397109 4.20474
-3.22648 0.30555099 4.2793398
-0.71312201 -0.65200597 2.1993501
-1.55694 -0.63101298 4.63622
-2.6803899 -0.44314501 4.17976
-3.2193699 0.279782 4.2771502
-0.68717402 -0.62429798 2.1264501
-1.51323 -0.62149101 4.5901399
-2.7559199 -0.38248399 4.1615
-0.700481 -0.63830203 2.1814799
-1.51323 -0.63092297 4.5685
-2.7274201 -0.399542 4.1507401
