# .PCD v0.7 - Point Cloud Data file format
VERSION 0.7
FIELDS x y z
SIZE 4 4 4
TYPE F F F
COUNT 1 1 1
WIDTH 1717
HEIGHT 1
VIEWPOINT 0 0 0 1 0 0 0
POINTS 1717
DATA ascii
2.13924 0.249982 2.3899601
2.0968299 0.20129301 2.51442
2.12606 0.181537 2.4911101
2.12762 0.20812599 2.46419
2.1459701 0.188706 2.4433899
2.14323 0.219974 2.4121001
2.0410199 0.34385499 2.4595001
2.0161901 0.367585 2.4672699
2.0729201 0.31013101 2.4500201
2.1149199 0.155901 2.5216601
2.06407 0.137512 2.59922
2.09551 0.13958 2.5542901
2.1421101 0.119093 2.50684
2.14171 0.147835 2.49453
2.1526301 0.16093799 2.4656601
2.14766 0.15612 2.4827099
2.1615601 0.128079 2.47471
2.1726 0.14399099 2.4312401
1.40894 1.37208 2.31812
1.46997 1.38511 2.3589799
1.29901 1.3564 2.18595
1.3109 1.3204499 2.19168
1.26982 1.33464 2.1834099
1.3200099 1.3548501 2.18975
1.27698 1.3767101 2.18712
1.30892 1.38805 2.1949501
1.33398 1.33915 2.2014201
1.33371 1.2913001 2.2228401
1.28303 1.29249 2.1847301
1.22598 1.31817 2.1816399
1.23524 1.3697701 2.18694
1.2552 1.29984 2.1798699
1.3837399 1.37763 2.29634
1.45262 1.33673 2.3480201
1.42173 1.2861 2.3310599
1.43484 1.3767 2.3369701
1.3894 1.33056 2.3032
1.37043 1.34473 2.2811899
1.36487 1.38754 2.2702
1.37343 1.38701 2.2862201
1.4785399 1.35621 2.36361
1.46513 1.27412 2.36075
1.53161 1.36647 2.40078
1.52714 1.3297 2.39592
1.39226 1.26307 2.31164
1.41246 1.1871099 2.33635
1.37956 1.21819 2.3084199
1.36835 1.31257 2.2841799
1.35337 1.31366 2.2587099
1.2359 1.28227 2.17893
1.18002 1.30957 2.1691201
1.19901 1.34905 2.17887
1.2092201 1.28109 2.1772101
1.25939 1.2663 2.17857
1.33883 1.3659101 2.2091
1.34377 1.33476 2.2260399
1.3653001 1.27885 2.2853701
1.3464299 1.27095 2.2609999
1.3116 1.23877 2.2034299
1.31283 1.26833 2.1996601
1.32081 1.24378 2.22768
1.29609 1.21237 2.2113299
1.29835 1.23721 2.19239
1.28526 1.25664 2.18573
1.32584 1.26773 2.2142899
1.31027 1.2095799 2.2410901
1.34044 1.39961 2.21872
1.31906 1.42119 2.20717
1.35288 1.24189 2.2815199
1.3719 1.25063 2.29722
1.34742 1.2148 2.2848699
1.33618 1.21977 2.27284
1.33442 1.24353 2.2571101
1.35229 1.36268 2.2435801
1.32987 1.36358 2.19419
1.26175 1.4105099 2.1961701
1.29388 1.42348 2.20525
1.28364 1.39315 2.19016
1.39349 1.12913 2.33202
1.41012 1.13491 2.3408799
1.43598 1.0793999 2.35253
1.38327 1.13928 2.3232999
1.39937 1.00247 2.32268
1.39033 1.05398 2.3227701
1.45032 0.98428899 2.3527601
1.38908 1.10633 2.32602
1.46828 1.11926 2.3779199
1.48725 1.07146 2.3851399
1.4776599 1.0071501 2.37186
1.26315 1.21931 2.1853399
1.19897 1.14211 2.2100201
1.1775399 1.11587 2.2087801
1.17118 1.13423 2.1982701
1.1819299 1.1523499 2.1942799
1.2312599 1.1521 2.2225001
1.21249 1.141 2.22335
1.2319601 1.17428 2.1962399
1.21746 1.1210901 2.22561
1.19407 1.1078 2.2160201
1.19716 1.16977 2.1829901
1.1666 1.11198 2.19925
1.17623 1.0793101 2.19993
1.15414 1.11622 2.1779499
1.17092 1.15522 2.1787
1.1783299 1.25178 2.16381
1.1471699 1.31521 2.15288
1.19285 1.39534 2.17837
1.2258 1.24585 2.17432
1.33375 1.26255 2.24231
1.35199 1.1336401 2.30337
1.3706599 1.18117 2.30878
1.14663 1.37911 2.1528299
1.13939 1.22137 2.14592
1.10439 1.3047301 2.1298101
1.22558 1.40266 2.1907401
1.3196 1.18138 2.2708001
1.3221 1.2208 2.25261
1.28716 1.17515 2.24297
1.2904 1.14134 2.26279
1.3116 1.14577 2.2769401
1.26035 1.17749 2.2137001
1.26289 1.1496201 2.2430999
1.24288 1.12629 2.2371299
1.21901 1.20284 2.1735201
1.44152 0.80316103 2.1755199
1.4721299 0.79337001 2.1605599
1.45385 0.79630101 2.1380301
1.43029 0.80489498 2.14115
1.4034801 0.81451499 2.1621799
1.41462 0.81139398 2.1903701
1.49923 0.785712 2.19135
1.49192 0.78706998 2.2165699
1.47729 0.79372501 2.1340001
1.45154 0.79813802 2.1264701
1.45891 0.79487598 2.13397
1.31473 1.11712 2.2778101
1.30162 1.0909801 2.26668
1.26799 1.11125 2.25055
1.24266 1.0923001 2.2362001
1.24228 1.0504 2.2318101
1.21284 1.08058 2.22104
1.27558 1.06531 2.2511301
1.4236 0.95461398 2.33792
1.3582799 0.99976701 2.29895
1.51333 0.90220898 2.3944099
1.41321 0.90167397 2.3362
1.47307 0.95501 2.3670001
1.38033 1.0276901 2.31354
1.5257 0.75494599 2.32407
1.52077 0.76450598 2.2892799
1.48028 0.769961 2.31815
1.49933 0.76002502 2.33671
1.5237401 0.753851 2.3509099
1.57011 0.74526 2.3020599
1.58608 0.73687398 2.3222499
1.54927 0.74631703 2.33776
1.60474 0.74233598 2.25842
1.5746 0.759745 2.22772
1.47975 0.779477 2.28526
1.50902 0.77879602 2.24229
1.44853 0.787736 2.30159
1.46173 0.77278 2.3318
1.48535 0.76704299 2.3496101
1.44868 0.78038901 2.3236699
1.6239901 0.72587401 2.2990999
1.62474 0.719845 2.3441999
1.66004 0.71098399 2.2935901
1.6433901 0.72700602 2.2624099
1.6471 0.70960599 2.3345499
1.67908 0.76016301 2.1300099
1.65013 0.76511598 2.13697
1.68716 0.74986899 2.15855
1.59953 0.77636802 2.1463001
1.64173 0.754412 2.1814401
1.59698 0.731933 2.3578899
1.56036 0.74443603 2.3523901
1.4865 0.802966 2.04825
1.44955 0.81166399 2.0569899
1.4674 0.79519999 2.07793
1.5268199 0.79726499 2.0602701
1.5123 0.80119801 2.0385101
1.4625 0.81697601 2.0410099
1.5027601 0.81278002 2.0176001
1.47294 0.82127398 2.0272
1.42338 0.80958599 2.0824499
1.43818 0.828076 2.0313399
1.41838 0.819866 2.06286
1.4468499 0.80009401 2.1022
1.48335 0.79311103 2.1046
1.48865 0.78739101 2.0848
1.49568 0.78985202 2.0710399
1.54969 0.79061002 2.14377
1.56345 0.77769297 2.1658599
1.5718499 0.79969698 2.1101799
1.51587 0.797692 2.1219599
1.5064 0.79016501 2.14922
1.5246 0.782938 2.1710501
1.55707 0.80291301 2.1252699
1.54668 0.80350101 2.1202099
1.5434901 0.77424401 2.2005999
1.5867701 0.76638103 2.1864901
1.62196 0.78269601 2.10602
1.4494801 0.79292899 2.2745099
1.44287 0.79784602 2.2512901
1.4174 0.80486 2.27192
1.42465 0.80161798 2.29162
1.40355 0.810507 2.2379601
1.45102 0.78100902 2.3408401
1.4514101 0.77566397 2.3325701
1.43739 0.78769499 2.3298099
1.42825 0.79982001 2.33091
1.4418499 0.80420101 2.34938
1.4252 0.79913199 2.32091
1.53484 0.80107701 2.0966599
1.51098 0.796112 2.10272
1.4975899 0.786933 2.16591
1.3417 0.82603502 2.1191101
1.37376 0.81919599 2.1025
1.34154 0.82271498 2.0875599
1.29057 0.83158302 2.11835
1.35683 0.82468098 2.1654601
1.31975 0.831218 2.1635301
1.40637 0.81288499 2.0866001
1.38081 0.82000202 2.06867
1.40879 0.81075799 2.12075
1.35048 0.82028401 2.0603199
1.32109 0.82254601 2.05687
1.30652 0.82696199 2.07774
1.55788 0.803379 2.0729301
1.5994 0.79834598 2.06865
1.53176 0.80211198 2.0292301
1.50752 0.79101598 2.0866899
1.34702 1.06151 2.29495
1.329 1.03534 2.2818301
1.33355 0.95169401 2.2876
1.30422 0.98507202 2.2695799
1.34949 1.10905 2.3006401
1.3060499 1.06845 2.2674201
1.31875 1.09419 2.2773299
1.33004 1.14293 2.2879701
1.30339 1.03497 2.2665999
1.27165 1.01445 2.24826
1.41468 0.813407 2.0774901
1.40388 0.82669699 2.04458
1.37773 0.82154697 2.03795
1.1256599 1.12388 2.15049
1.15063 1.15635 2.1587
1.1250499 1.09279 2.15468
1.14612 1.07529 2.1735001
1.0953701 1.14316 2.1294501
1.12581 1.16587 2.1423399
1.08009 1.07529 2.1261599
1.17423 1.19645 2.1614101
1.1469899 1.18121 2.14955
1.26113 0.95177799 2.2444899
1.28265 0.92607802 2.2599599
1.2398601 1.01633 2.2270601
1.20985 1.03415 2.2112801
1.24892 0.99563402 2.2328
1.20174 1.22363 2.16733
1.47249 0.78860801 2.3667099
1.50267 0.77759898 2.37869
1.5055799 0.76106799 2.3633201
1.22973 0.92267901 2.2270601
1.22277 0.98709297 2.21629
1.32026 0.90024102 2.2821901
1.34181 0.90570599 2.29567
1.34439 0.86199802 2.2918401
1.3137 0.85469002 2.2648499
1.29431 0.886603 2.26737
1.38125 0.81928301 2.2022901
1.1892 1.0101 2.19646
1.18264 1.03942 2.19681
1.21986 0.95417202 2.2170401
1.19048 0.97721702 2.1973901
1.14946 1.02651 2.17363
1.13963 0.96995401 2.1663599
1.43005 0.79626501 2.3094499
1.39089 0.82552898 2.3018899
1.41913 0.812361 2.3308499
1.33433 0.83133101 2.2309799
1.37064 0.82073498 2.2521801
1.39581 0.81197703 2.26267
1.36875 0.87171698 2.30968
1.3468 0.83541602 2.2767799
1.40762 0.82924598 2.3287101
1.39103 0.86705601 2.3227301
1.40509 0.84790897 2.32968
1.27127 0.87941498 2.2490301
1.4306901 0.83823001 2.3462701
1.4620301 0.82187003 2.3682101
1.2777801 0.839755 2.1881499
1.28274 0.84160602 2.2121401
1.31301 0.83441901 2.2005401
1.25209 0.85601503 2.21877
1.26315 0.83480102 2.14258
1.24567 0.84123701 2.1735899
1.24734 0.84666699 2.1954701
1.29196 0.84576797 2.23279
1.46299 0.82769698 1.9027801
1.49369 0.83118701 1.91509
1.47782 0.824332 1.87525
1.43635 0.82462901 1.88201
1.43655 0.82994097 1.92198
1.47679 0.83505201 1.93793
1.49634 0.83423698 1.9343801
1.5162899 0.825481 1.95079
1.5192 0.82549798 1.88723
1.52651 0.825634 1.91488
1.45336 0.82224602 1.86827
1.44311 0.82420403 1.84679
1.51027 0.82340902 1.86409
1.49621 0.82243103 1.8355
1.41142 0.82631397 1.8552001
1.38064 0.829696 1.8810199
1.40096 0.828803 1.89976
1.21103 0.87775499 2.21419
1.21321 0.855362 2.1977201
1.23672 0.88867998 2.23102
1.17436 0.895603 2.1926899
1.1936001 0.871333 2.2046199
1.18203 0.86327702 2.18502
1.18757 0.86854303 2.19856
1.20508 0.845541 2.1634099
1.29864 0.82880598 1.98537
1.31075 0.82094097 2.01105
1.32401 0.81945902 1.9846801
1.3164901 0.82928401 1.96558
1.2687 0.827479 2.0043001
1.29703 0.83368099 1.97429
1.27609 0.83109999 1.97127
1.35072 0.81683201 2.02351
1.34293 0.81353599 1.99857
1.32927 0.81966001 1.97454
1.24976 0.82739902 1.98706
1.22865 0.82711101 2.0039799
1.24019 0.82936102 2.0357499
1.27344 0.83037502 2.07287
1.24278 0.833363 2.0855601
1.20898 0.83696401 2.1178701
1.27806 0.82579398 2.03478
1.40062 0.82470298 2.0195601
1.37764 0.81866801 2.0201001
1.4703799 0.83151698 1.99564
1.41943 0.82715398 1.99683
1.5377001 0.80871499 1.99622
1.50473 0.82319099 1.98738
1.48068 0.83551103 1.96419
1.44256 0.83283401 1.96074
1.49378 0.83182001 1.97487
1.34868 0.816953 1.97589
1.35401 0.827672 1.9495
1.39341 0.82289398 1.96463
1.38024 0.81643498 2.0000801
1.3274601 0.83564001 1.93987
1.29501 0.83152401 1.9375401
1.34904 0.834885 1.92466
1.38794 0.829018 1.92909
1.20526 0.83152801 2.0425
1.1782 0.83298999 2.0736201
1.25775 0.823026 1.94591
1.22561 0.82252598 1.9685
1.33632 0.83530802 1.90807
1.36491 0.83326501 1.90018
1.33766 0.83282602 1.89288
1.30689 0.82634503 1.90222
1.35641 0.83084202 1.8775899
1.16749 0.81023002 1.926
1.1824501 0.812738 1.94059
1.19642 0.80781502 1.90446
1.14377 0.80888802 1.90166
1.13199 0.81271601 1.9428101
1.22648 0.80618697 1.91819
1.23343 0.81331998 1.93705
1.16887 0.82103902 1.96777
1.23322 0.804883 1.90323
1.2295001 0.80890399 1.8773299
1.17843 0.80968601 1.86757
1.46918 0.82385099 1.8125499
1.43225 0.82833201 1.7987601
1.32444 0.82501799 1.8796099
1.30694 0.81669998 1.86893
1.3037601 0.81873602 1.88278
1.3351001 0.82179499 1.85522
1.2759 0.81245297 1.8801
1.29451 0.81348002 1.84701
1.37889 0.82800901 1.85523
1.4009399 0.82839 1.82845
1.25626 0.81093597 1.85435
1.24932 0.80731201 1.8936501
1.25781 0.81262702 1.91452
1.34259 0.81912601 1.8049901
1.2775 0.81335098 1.82584
1.4155101 0.82826698 1.9439501
1.362 0.82435298 1.8306
1.28074 0.81477302 1.79945
1.23506 0.81004298 1.80686
1.21842 0.81057298 1.84065
1.31762 0.81598902 1.77016
1.3881 0.82630599 1.78995
1.36307 0.82062298 1.76563
1.3355 0.81531 1.7366
1.30495 0.81500399 1.74532
1.27105 0.81083399 1.74914
1.34857 0.81717998 1.75199
1.27915 0.81532502 1.7734801
1.38089 0.82121003 1.73928
1.36857 0.81509 1.70891
1.32003 0.81119603 1.69988
1.29917 0.81340998 1.72794
1.23939 0.80463499 1.91197
1.39916 0.82896203 1.80717
1.74835 0.78492701 1.83733
1.7618901 0.77847099 1.79312
1.73886 0.79384899 1.81059
1.71357 0.79680598 1.82555
1.78504 0.76431501 1.82865
1.7749701 0.766146 1.86191
1.7239 0.79373002 1.78926
1.73643 0.78601497 1.76375
1.7577699 0.77003199 1.75172
1.78631 0.74881703 1.76763
1.80255 0.74892199 1.80187
1.7238899 0.79255599 1.77218
1.70646 0.78710002 1.76683
1.67396 0.79452002 1.79922
1.68319 0.79686397 1.8329999
1.42133 0.83053702 1.74157
1.45046 0.831828 1.7347701
1.4197 0.82340401 1.70807
1.40381 0.828251 1.76556
1.43687 0.83255202 1.75853
1.43615 0.83469498 1.74454
1.4772 0.82650399 1.76758
1.48076 0.828237 1.72411
1.45316 0.82967502 1.7047499
1.44382 0.82141602 1.6689
1.41058 0.814587 1.66875
1.39118 0.81440198 1.69131
1.71719 0.77567399 1.7433701
1.6889499 0.77915698 1.7413599
1.6763901 0.78760803 1.7614599
1.69464 0.76359499 1.71228
1.73961 0.77654499 1.7478
1.7364 0.76070398 1.72804
1.62719 0.80528003 1.81618
1.64881 0.80035502 1.8515199
1.66001 0.79139 1.73314
1.65742 0.78531599 1.6985
1.72349 0.744174 1.7059
1.66704 0.766675 1.67788
1.70364 0.73570198 1.68571
1.68652 0.74838102 1.68225
1.63873 0.804259 1.70628
1.625 0.81492603 1.72615
1.62611 0.81385499 1.75506
1.6534899 0.79763401 1.76673
1.61631 0.814744 1.70407
1.5904599 0.81072301 1.6984299
1.6024899 0.81897497 1.71899
1.62631 0.804658 1.68927
1.60826 0.80957502 1.69076
1.60418 0.79811603 1.6777
1.56463 0.80227399 1.67633
1.57686 0.816163 1.72567
1.54883 0.81268901 1.70626
1.59995 0.82207203 1.7419
1.56888 0.82524902 1.78822
1.60404 0.81781501 1.7983201
1.60408 0.82263601 1.77448
1.58681 0.81628102 1.82934
1.54096 0.82415402 1.81696
1.52897 0.82138097 1.76992
1.53732 0.82468301 1.79312
1.6316 0.808406 1.78487
1.60467 0.82443798 1.75842
1.58576 0.82572401 1.76205
1.54442 0.82093698 1.85895
1.57012 0.81539601 1.87195
1.61353 0.80616897 1.84533
1.50968 0.82273299 1.79767
1.64196 0.79723501 1.6907001
1.6413 0.78470099 1.67392
1.61474 0.77236801 1.65157
1.58363 0.78627998 1.65738
1.57925 0.773238 1.63649
1.65201 0.75989503 1.65628
1.60625 0.75846601 1.63521
1.56938 0.78638101 1.65082
1.36375 0.81199098 1.67787
1.54456 0.81617898 1.73921
1.56713 0.82084 1.75411
1.51204 0.820521 1.73007
1.51613 0.82034999 1.69854
1.42146 0.792418 1.58523
1.45016 0.78996998 1.59159
1.4211 0.78051001 1.5652601
1.3977799 0.79871398 1.57829
1.41798 0.80137497 1.60269
1.47826 0.80339497 1.61283
1.47973 0.79050601 1.59483
1.48335 0.77581298 1.57988
1.45486 0.769297 1.5666699
1.44397 0.807495 1.6226799
1.43371 0.75336897 1.53933
1.39688 0.77959502 1.54537
1.3989201 0.79128802 1.56137
1.54723 0.77427298 1.60816
1.50515 0.78858697 1.59785
1.51342 0.80520099 1.6281199
1.5472 0.790842 1.63608
1.57611 0.75922102 1.61382
1.56783 0.75569898 1.60172
1.51924 0.76116198 1.5799
1.55746 0.74136603 1.5884399
1.47241 0.82137299 1.65038
1.5047899 0.819152 1.65063
1.53193 0.80772197 1.65694
1.4993 0.82411402 1.67363
1.53178 0.813721 1.6827
1.59806 0.74933398 1.62135
1.58348 0.74229801 1.60339
1.62958 0.73862201 1.6329499
1.60596 0.72257501 1.61106
1.58313 0.71894401 1.59517
1.5245301 0.72219002 1.56791
1.4838001 0.74580699 1.558
1.54799 0.69366503 1.57451
1.86055 0.56063002 1.75221
1.8589 0.52855599 1.7535599
1.81968 0.57184798 1.7313499
1.8847899 0.56152898 1.7663701
1.8509901 0.59368098 1.74764
1.90447 0.51385999 1.77729
1.89829 0.490583 1.7769901
1.8181601 0.49946699 1.74134
1.8178 0.61794299 1.72955
1.80243 0.59105599 1.72079
1.77727 0.54366702 1.7155401
1.46048 0.65948999 1.52215
1.45546 0.70064002 1.5266
1.50489 0.67090601 1.54965
1.47998 0.637124 1.53286
1.42151 0.68304098 1.50137
1.44163 0.69398803 1.5158
1.39639 0.64006799 1.48386
1.44698 0.61213201 1.51452
1.4285001 0.63417399 1.50149
1.4927 0.71385199 1.5504301
1.4687099 0.72852802 1.5422
1.42099 0.71168798 1.50731
1.43393 0.72915697 1.52133
1.44959 0.72466099 1.53056
1.5538 0.66141599 1.57654
1.51245 0.621898 1.55343
1.5151401 0.69889802 1.5580601
1.47276 0.82922697 1.67838
1.36315 0.81187999 1.65545
1.3417 0.81209302 1.6436599
1.3274699 0.811059 1.66373
1.33289 0.807693 1.61366
1.30931 0.80722499 1.64162
1.36783 0.81193203 1.62468
1.32619 0.81222898 1.6497
1.27916 0.80219603 1.67406
1.43582 0.81458199 1.64703
1.4828399 0.73049998 1.54934
1.3735501 0.79775399 1.5597
1.39001 0.79471302 1.55589
1.3851 0.750853 1.51449
1.35065 0.775711 1.53183
1.3876801 0.80867702 1.60399
1.373 0.80725199 1.58381
1.38995 0.79813999 1.56312
1.03932 0.68195999 1.48132
1.0408601 0.66438198 1.44224
0.99406397 0.65362602 1.4545
0.96424502 0.65302497 1.4824899
1.1149499 0.71558601 1.49243
1.0798 0.68975002 1.4621
1.00166 0.68055999 1.51499
1.04835 0.70474398 1.53267
1.0639499 0.65837902 1.4159
1.02635 0.63343501 1.3993
0.98399299 0.638354 1.43024
0.96305501 0.63421798 1.44284
1.36137 0.81070101 1.60093
1.40606 0.809955 1.63213
1.34446 0.79304397 1.55392
1.3432699 0.80232501 1.57858
1.2974499 0.79503298 1.59694
1.30883 0.7834 1.55141
1.29778 0.79949403 1.6140701
1.25095 0.794833 1.6755199
1.2592601 0.79314899 1.63255
1.21381 0.786228 1.65839
1.24377 0.79630202 1.70236
1.21366 0.786466 1.7006299
1.2689 0.80526203 1.71214
1.26525 0.78416502 1.58135
1.23593 0.785918 1.6095901
1.21389 0.78503299 1.62559
1.22916 0.79384202 1.7329299
1.2265199 0.79665798 1.75901
1.25029 0.81068897 1.77801
1.19783 0.783162 1.75195
1.21819 0.78965998 1.74815
1.21433 0.79866201 1.78449
1.20556 0.788921 1.7693501
1.18229 0.78466898 1.78054
1.18808 0.79799497 1.814
2.0687599 0.42503199 2.26599
2.09285 0.39577001 2.2838299
2.0920401 0.40922999 2.2525899
2.07409 0.44369701 2.2165501
2.04533 0.43325701 2.3001101
2.0738499 0.40104401 2.3113699
2.0425401 0.45354199 2.2602701
2.10268 0.38479701 2.2856901
2.1036501 0.387786 2.2757399
2.0998001 0.42375901 2.20855
2.11691 0.37819701 2.25705
1.39505 0.72486699 1.5002
1.38726 0.69299799 1.48671
1.36052 0.72283697 1.4881001
1.34556 0.65772802 1.45983
1.3358001 0.69316399 1.4630001
1.32133 0.72433901 1.47246
1.33551 0.74667698 1.4980299
1.86445 0.64925301 2.21924
1.8339 0.65782201 2.24349
1.85874 0.62931001 2.2732501
1.8840801 0.623447 2.25791
1.91611 0.62761599 2.1840401
1.89073 0.66346598 2.1379001
1.90469 0.62120301 2.2221999
1.78943 0.66720003 2.2723999
1.82705 0.62721902 2.30708
1.80698 0.68169999 2.2326
1.83576 0.67692101 2.2049301
1.86095 0.597359 2.32935
1.8875 0.61229903 2.28005
1.24832 0.77509302 1.55559
1.21708 0.77627498 1.57596
1.30604 0.76279801 1.51147
1.27319 0.76751101 1.52055
2.0885799 0.36647001 2.33462
2.1071801 0.32146001 2.3522799
2.02437 0.45467401 2.3060801
2.02 0.44877499 2.33687
2.04073 0.424043 2.33986
2.01982 0.473447 2.2737501
1.99957 0.50009602 2.28439
2.00634 0.47358999 2.3249099
2.0067401 0.45171699 2.3639801
2.0329299 0.41422799 2.3796301
2.05217 0.40448299 2.36007
2.06534 0.39611101 2.34462
1.9811 0.49224699 2.35449
2.0634501 0.38224301 2.372
2.0432401 0.388814 2.40274
2.0122001 0.41108999 2.4184899
1.99713 0.44339001 2.39377
2.0351901 0.375 2.43259
2.1696899 0.4183 2.1012101
2.1934199 0.40523699 2.0688801
2.1686001 0.439381 2.0627501
2.18378 0.42731899 2.0255599
2.2072599 0.394115 2.04443
2.20101 0.376407 2.10624
2.2223001 0.36655 2.06989
2.1643 0.46163699 2.03581
2.1496999 0.46044901 2.07213
2.0848801 0.454584 2.18326
2.0517399 0.47846001 2.2042699
2.04842 0.46639499 2.22577
2.11306 0.44079301 2.1626699
2.08008 0.476253 2.1649001
2.1382599 0.443046 2.1202099
2.10396 0.48059401 2.1263299
1.75644 0.69488901 2.2443399
1.76015 0.68083102 2.2723999
1.75459 0.66609502 2.3064599
1.80143 0.696702 2.2036901
2.0076301 0.50944799 2.2456501
1.99113 0.539222 2.2277501
1.98513 0.530343 2.2577701
2.02455 0.48483399 2.2470601
2.0160999 0.52888399 2.19976
1.95708 0.56643802 2.24808
1.97815 0.56492698 2.2104101
1.9705499 0.53614801 2.28297
1.79767 0.62484199 2.34109
1.87377 0.56194502 2.37062
1.90587 0.57179099 2.3222799
1.83766 0.58177602 2.3773201
1.90794 0.59173399 2.28971
1.8250099 0.69364899 2.1807401
1.80325 0.708974 2.15049
1.85551 0.68132901 2.15944
1.83242 0.700014 2.14289
1.86681 0.68901598 2.1186199
1.84942 0.702393 2.0999601
1.80063 0.72534102 2.0750699
1.76921 0.71928799 2.15238
1.76595 0.709234 2.1955199
1.97975 0.521043 2.3005199
1.96127 0.53408301 2.31229
1.98303 0.50940198 2.3208599
1.93838 0.562365 2.2937701
1.93108 0.58718902 2.2600801
1.93397 0.59541798 2.2345099
1.9543 0.592116 2.2033899
1.91984 0.52952898 2.3727
1.95726 0.52296001 2.3433199
1.93313 0.54696602 2.3301301
1.91524 0.49116099 2.4326999
1.93753 0.50582999 2.39094
2.17695 0.44384599 1.96997
2.17891 0.42840201 1.96717
2.17167 0.445088 1.9592299
2.1730101 0.45107701 1.98757
2.1811199 0.42314899 1.98579
2.1851101 0.40782499 1.97249
2.17033 0.42425799 1.9421999
2.1825199 0.398278 1.95074
2.15785 0.44484001 1.93621
2.15639 0.46604601 1.96223
2.1103799 0.52961099 2.0239899
2.0887401 0.54885 1.98664
2.0887101 0.549968 2.02038
2.0850201 0.548733 2.04671
2.13134 0.50303602 2.0430901
2.1254699 0.51605099 2.0280099
2.1310201 0.50991398 2.0160201
2.11742 0.51999599 1.99754
2.1078401 0.526878 2.0515599
2.0798099 0.56006402 1.96164
2.0785601 0.56309998 1.97261
2.0887301 0.54072797 1.95441
2.1169701 0.51098597 1.97162
2.1004801 0.52251399 1.95487
2.06845 0.56689602 2.0236001
2.05585 0.58326602 2.0009
2.11344 0.35993701 1.90074
2.08286 0.42429101 1.87925
2.11937 0.43880001 1.89886
2.13801 0.41520599 1.91098
2.1062601 0.240656 1.90209
2.0446701 0.33416301 1.86384
2.04533 0.41713101 1.8608201
2.1359799 0.273462 1.91729
2.1563499 0.397484 1.92397
2.1579001 0.36626399 1.92443
2.16996 0.33125901 1.93329
2.0956099 0.45963001 1.88284
2.1294899 0.46757901 1.91951
2.1415601 0.450048 1.91959
2.1473999 0.42855099 1.91791
2.1126699 0.45999801 1.8914599
2.11134 0.48134199 1.90321
2.13553 0.472271 1.93437
2.1210301 0.491034 1.93838
2.1549201 0.48313901 2.01366
2.1512699 0.48138699 2.0380099
2.1379499 0.496436 1.9887
2.1559601 0.477676 1.985
2.1712799 0.45859599 2.0155599
2.12693 0.481794 2.0856099
2.1130099 0.511976 2.06984
2.1419001 0.48362499 1.96825
2.0836799 0.54742903 1.9339401
2.07533 0.568326 1.95319
2.07042 0.57340801 1.9650199
2.08937 0.53454202 1.94076
2.09234 0.52889299 1.9448
2.0934999 0.51933801 1.90443
2.0790701 0.54410601 1.9039299
2.0638001 0.56729299 1.91407
2.0645499 0.577483 1.94092
1.87892 0.704808 1.9854
1.91416 0.69700599 1.94988
1.8906 0.710383 1.92493
1.8481801 0.73002499 1.92951
1.93466 0.68206698 1.97263
1.9201601 0.68113202 2.00069
1.84315 0.72632498 1.9553
1.90465 0.681844 2.0366001
1.87515 0.69796598 2.03895
1.84979 0.70693201 2.0621901
1.9319299 0.68991601 1.91442
1.90183 0.707066 1.89992
1.87409 0.72289002 1.8931201
1.90949 0.65255702 1.80733
1.90906 0.66179103 1.82236
1.9298199 0.64384502 1.82323
1.89424 0.669406 1.80041
1.90098 0.66566199 1.81407
1.92065 0.62240702 1.7975399
1.90055 0.650711 1.78848
1.9147201 0.66888797 1.84008
1.8957601 0.68017697 1.82314
1.94591 0.65150303 1.84648
1.95745 0.63097203 1.83245
1.94884 0.61800802 1.81712
2.0656099 0.49273399 1.8691601
2.0924001 0.49622199 1.8853
2.0289299 0.455724 1.85085
2.0170901 0.35493901 1.84912
2.0091901 0.401853 1.84241
2.03178 0.51058102 1.85202
2.0487199 0.54165399 1.87002
2.0771 0.52563298 1.8845201
2.28333 0.258055 2.09728
2.2914701 0.232382 2.11146
2.30007 0.232136 2.07653
2.26578 0.28314799 2.07283
2.2650399 0.279183 2.10939
2.28772 0.25613099 2.0728099
2.2588301 0.23289301 2.18735
2.2802701 0.228223 2.1431999
2.29285 0.205819 2.1315801
2.2067399 0.391725 2.0197501
2.1895499 0.40710199 1.9944299
2.22017 0.37643701 2.0184
2.21663 0.37037799 1.9983701
2.19696 0.38651201 1.97293
2.2343099 0.35901901 2.0281999
2.22438 0.37248999 2.0351701
2.24178 0.33343601 2.0476999
2.2361801 0.34806201 2.0143499
2.2283399 0.366889 2.01913
2.2476799 0.31365299 2.0197401
2.2423301 0.32569799 2.0697501
2.2500401 0.309293 2.0457699
2.22508 0.341667 1.97864
2.2102499 0.36289701 1.97035
2.1974699 0.37172899 1.95459
2.09233 0.51081198 2.10624
2.1598301 0.42425901 1.92835
1.99341 0.51341999 1.83085
1.98976 0.45366901 1.82894
2.02141 0.55247903 1.85015
2.09935 0.51712197 1.93054
2.0632701 0.55343598 1.89126
2.0353301 0.58219999 1.89274
2.2041399 0.19268601 1.95708
2.15974 0.126386 1.93634
2.0613899 0.20038 1.88225
2.0442801 0.280368 1.86844
2.0692999 0.11803 1.8869801
2.18578 0.28780001 1.94349
2.17928 0.36518699 1.93706
1.96903 0.65802097 1.96657
1.9427 0.66454601 2.0077
1.97103 0.64049798 2.01355
1.99359 0.63072401 1.9890701
2.0052099 0.62603098 1.9627301
1.98966 0.64335698 1.92983
1.9283201 0.66072798 2.05565
2.04546 0.58893102 1.92529
2.02932 0.56946099 1.8658
2.0024199 0.62307698 1.89546
2.0195301 0.61102998 1.92656
2.00508 0.59941 1.85592
2.03949 0.59929299 1.95196
1.98198 0.62201899 2.0399899
2.0099299 0.61033303 2.0236599
1.96218 0.63670301 2.0406499
2.0309601 0.604568 1.98747
1.9626 0.62651998 2.0722499
2.00701 0.59389198 2.0780399
1.94187 0.64416897 2.0697401
2.0450499 0.58107299 2.04318
2.03479 0.59878403 2.0100701
2.0266099 0.58724999 2.0612199
2.04391 0.56218702 2.0998299
2.07094 0.55163699 2.07511
1.97101 0.65964103 1.89854
1.90167 0.69109899 1.85419
1.92987 0.67356402 1.86329
1.89913 0.683236 1.83998
1.89371 0.63475502 1.77597
1.86373 0.62324202 1.75595
1.8739001 0.66728902 1.7716399
1.90886 0.58905298 1.7839
1.86176 0.65241402 1.75474
1.83937 0.66125298 1.74527
1.857 0.70605099 1.7862
1.88069 0.693901 1.80178
1.84462 0.69163197 1.7638299
1.94242 0.67615199 1.88537
1.96394 0.67080301 1.93059
1.83213 0.74592602 1.88959
1.88736 0.71127099 1.86878
1.85648 0.73207003 1.8545001
1.91316 0.69485497 1.88191
1.89474 0.71000201 1.88594
1.96145 0.65677398 1.86831
1.98871 0.63567698 1.86935
1.92677 0.53639102 1.7917
1.95052 0.58280599 1.80951
1.95452 0.53588301 1.80969
1.97876 0.63168699 1.84954
1.80706 0.75023901 1.91576
1.80079 0.756585 1.88598
1.81454 0.75407499 1.89711
1.82242 0.73935002 1.93932
1.76098 0.76574302 1.9007699
1.7758 0.75445098 1.93206
1.79926 0.74421299 1.95313
1.77645 0.746315 1.7409
1.7616301 0.75104499 1.72763
1.7515399 0.730416 1.70715
1.74804 0.76336098 1.93896
1.7734801 0.75060898 1.96639
1.80768 0.73232698 2.01316
1.81309 0.75190097 1.85241
2.0000601 0.56515199 1.83525
1.98098 0.574045 1.82385
1.99445 0.58757502 1.83374
1.9763 0.54490697 1.8215899
1.9766999 0.60522699 1.82972
1.9407099 0.504278 1.8001
1.80765 0.75091797 1.82618
1.8304 0.73872298 1.8213201
1.95622 0.45869601 1.80988
1.94642 0.45107901 1.8063999
1.91723 0.46144 1.79242
1.88151 0.710522 1.84253
1.8913701 0.69409102 1.83746
1.86394 0.719172 1.81717
1.8836401 0.70204699 1.82386
1.84056 0.72556198 1.79932
1.8215899 0.72147602 1.77609
1.9947 0.625328 1.85614
2.0935199 0.532049 2.0727501
1.99695 0.27494499 1.84837
1.9419399 0.34548199 1.82041
1.98344 0.35239899 1.83577
1.98384 0.21966401 1.84451
1.94743 0.27927801 1.82651
1.93487 0.39456901 1.81143
1.88293 0.338355 1.7923
1.8901 0.377545 1.79311
1.97659 0.39131001 1.8287899
1.96644 0.43094701 1.8187701
1.8847899 0.443892 1.7808
2.14218 0.27597299 2.3503399
2.1772699 0.246282 2.31129
2.20259 0.248401 2.26349
2.1567199 0.24756099 2.3513401
2.1024101 0.30695599 2.3900101
2.178 0.21294799 2.33761
2.1961701 0.223662 2.29848
2.2532699 0.297133 2.02689
2.2553599 0.291888 2.0134499
2.2484801 0.296597 1.99198
2.2395201 0.32793599 1.99578
2.2629099 0.28083101 2.0303199
2.2611301 0.27499899 2.00387
2.1534901 0.222707 2.3815401
2.2258501 0.205431 2.2699201
2.2342601 0.229655 2.2334299
2.28935 0.111677 2.2423301
2.27317 0.121715 2.2637701
2.28194 0.080592901 2.2666199
2.30317 0.082144298 2.2288001
2.2809899 0.140789 2.23946
2.30057 0.120375 2.2142701
2.25913 0.141992 2.2730999
2.26193 0.101092 2.2897999
2.31744 0.0240405 2.2304699
2.2536399 0.077232003 2.31498
2.2873299 0.0276078 2.2810199
2.21752 0.317635 1.9564
2.22507 0.32265601 1.96411
2.2272999 0.294572 1.96472
2.20258 0.31123701 1.95041
2.20678 0.34097299 1.95411
2.23592 0.31696701 1.9773099
2.2509301 0.25450501 1.9826601
2.2259901 0.24281301 1.9655
2.2305 0.34187701 2.0915201
2.2783899 0.171858 2.21857
2.28969 0.145431 2.2207601
2.2999899 0.14069501 2.1975601
2.2650599 0.16525 2.24893
2.25279 0.19261099 2.24512
2.2927599 0.17169 2.1798501
2.2737701 0.200212 2.1982901
2.26105 0.206921 2.2182701
2.3422301 0.112259 2.11396
2.3364799 0.116334 2.1294301
2.34709 0.092490099 2.10747
2.3387499 0.117982 2.1020701
2.3382101 0.120651 2.1159799
2.329 0.13479801 2.11763
2.3143599 0.14297301 2.1542001
2.34145 0.105763 2.0687499
2.3525801 0.078756697 2.0795
2.3559799 0.053238802 2.09202
2.2718999 -0.0211205 2.3392799
2.26772 -0.066127397 2.3612399
2.2904699 -0.0427658 2.3015201
2.28774 -0.0053955 2.2959199
2.26284 9.8500001e-05 2.3483901
2.2544401 -0.024522601 2.3799601
2.2553599 -0.054371201 2.3893099
2.2581899 -0.095442697 2.39663
2.2849801 -0.111322 2.34091
2.2841001 -0.079267502 2.3273499
2.3067901 -0.035753701 2.2667401
2.3078699 -0.072792903 2.27579
2.3274801 0.140788 2.0880001
2.3118501 0.168369 2.1147001
2.29933 0.178422 2.1482699
2.3200901 0.104635 2.1772599
2.31584 0.17226499 2.0739801
2.30498 0.20427001 2.0896499
2.3345699 -0.0160923 2.0248401
2.35128 0.0097164996 2.03985
2.3511 -0.0102438 2.0359299
2.3610301 -0.0253307 2.04828
2.3465099 -0.050264001 2.0299399
2.32603 0.031913899 2.0206499
2.2941699 -0.0093120998 2.0048499
2.3489499 0.0592556 2.0527401
2.36221 0.0150835 2.07094
2.32532 0.145301 2.0517399
2.3391399 0.090813197 2.0427201
2.32727 0.11339 2.0303199
2.37937 -0.059440099 2.0706899
2.3666601 -0.068747103 2.04392
2.37321 -0.022988699 2.0876601
2.22034 0.358713 2.0950401
2.2736199 0.25061199 2.01105
2.2874401 0.246998 2.04618
2.28934 0.217838 2.01758
2.27984 0.202485 2.0014501
2.2704501 0.22625799 1.99742
2.3072701 0.202784 2.0511601
2.29722 0.18868101 2.0144999
2.2899499 0.203096 2.01036
2.27529 0.17326701 1.99418
2.24891 0.205659 1.9804699
2.2397799 0.15917701 1.9763
2.26771 0.113095 1.98952
2.3037801 0.149425 2.0086401
2.2100101 0.098337702 1.96378
2.0101099 0.139193 1.85525
1.96287 0.175137 1.83284
2.3171301 0.172351 2.05143
2.3211601 0.141739 2.0248599
2.3150499 0.167566 2.03163
2.3262 0.080914401 2.0232899
2.2930601 0.058070999 2.00175
2.3053701 0.107535 2.0079401
2.24108 0.029700899 1.97987
2.16787 0.055195201 1.94231
2.2044401 0.0169737 1.9632
2.31792 0.12876 2.0149801
2.3074701 0.214114 2.0714099
2.18891 -0.035104599 1.9549201
2.0890901 -0.0360239 1.89776
1.98074 0.092139304 1.8378201
0.749282 2.65906 2.0207801
0.740403 2.65467 2.0026901
0.71217299 2.6587901 2.00387
0.76317501 2.6411901 2.0032201
0.732535 2.6461899 1.99191
0.70054197 2.6501999 1.98259
2.2216001 -0.0359561 1.9737
1.9183 0.253831 1.81285
1.85365 0.25965601 1.77843
1.92363 0.198644 1.81519
1.87147 0.19802301 1.78731
1.77402 0.28739399 1.73655
1.82757 0.32200301 1.76428
1.78286 0.23233201 1.73914
1.9192899 0.14139099 1.80878
1.69723 0.68388498 2.3375299
1.70216 0.69361699 2.2932601
1.6944 0.70455801 2.2676899
1.6529 0.70178401 2.36358
1.7263 0.67603201 2.31638
1.73953 0.65735197 2.34794
1.71228 0.66088802 2.3901999
1.73123 0.70862103 2.2256801
1.7344 0.687464 2.2765
1.61549 0.72208703 2.3798499
1.64513 0.69826299 2.40959
1.67504 0.68057799 2.3993399
1.68106 0.72860199 2.21892
1.6252199 0.742814 2.23101
1.72391 0.72558999 2.1871099
1.68336 0.73884398 2.19344
1.7615401 0.73091602 2.1192701
1.73 0.73432702 2.15486
1.57034 0.74456102 2.3727801
1.58987 0.73992997 2.3891001
1.5477999 0.75128299 2.36975
1.74226 0.74645001 2.0862899
1.52151 0.75988501 2.3731699
1.6088001 0.73327202 2.4163499
1.8239501 0.73420799 1.79956
1.79468 0.71883202 1.74163
1.66652 0.72307801 1.6474299
1.67579 0.74414802 1.66444
1.65539 0.77324802 1.66655
1.69926 0.710401 1.66599
1.6590101 0.68254101 1.6390001
1.64676 0.71473098 1.63414
1.68488 0.72864699 1.66022
1.63226 0.698852 1.62375
1.80205 0.68092501 1.72539
1.82139 0.69511402 1.74929
1.80598 0.651281 1.7237
1.7697099 0.72443998 1.71198
1.77817 0.70666999 1.71399
1.7738301 0.73143101 1.72188
1.7749799 0.67347199 1.7056299
1.76116 0.700782 1.70028
1.74498 0.70584601 1.69117
1.72637 0.71952897 1.68622
1.75093 0.505243 1.71074
1.84868 0.42472601 1.7678699
1.78877 0.44368699 1.73681
1.77634 0.625494 1.70514
1.72408 0.65878898 1.6751601
1.78646 0.68734002 1.71304
1.72596 0.55635101 1.68738
1.76071 0.58481401 1.6992
1.72111 0.492531 1.69656
1.70761 0.53429598 1.68299
1.76766 0.39126199 1.72927
1.65755 0.449837 1.66536
1.68793 0.376921 1.6858
1.73522 0.30396399 1.71556
1.64946 0.484891 1.65775
1.66259 0.523359 1.6587
1.74001 0.68724799 1.68566
1.6907901 0.733527 1.6711299
1.65495 0.64634198 1.6359
1.7008801 0.58943099 1.66592
1.63004 0.59577799 1.62445
1.729 0.61555398 1.67781
1.68607 0.56120998 1.66435
1.6134 0.63016999 1.61203
1.63309 0.57276702 1.6301
1.57827 0.56141102 1.6012599
1.5643899 0.60269898 1.58584
1.58255 0.38918999 1.62472
1.58715 0.47647101 1.6237299
1.59723 0.68190801 1.60154
1.50131 0.59550101 1.54962
1.3981301 0.60901099 1.4848
1.35798 0.60782802 1.4628201
1.6386499 0.30627999 1.65959
1.58033 0.50049001 1.61642
1.5562201 0.29768699 1.61322
1.52583 0.46174601 1.58565
1.53544 0.31670699 1.60136
1.49309 0.343357 1.5734299
1.5055799 0.552405 1.56012
1.4711601 0.49978799 1.54697
1.42512 0.52909601 1.5125901
1.40249 0.376524 1.51292
1.40955 0.44709101 1.5114
1.27293 0.727512 1.4582
1.24604 0.72720701 1.45675
1.28685 0.74090397 1.47621
1.28452 0.71060801 1.4502701
1.24537 0.75136298 1.49017
1.21731 0.72856098 1.45909
1.2199301 0.73878002 1.47451
1.27837 0.75834602 1.49714
1.29274 0.63494903 1.42954
1.3004 0.67530501 1.44103
1.32515 0.62221003 1.44576
1.2819999 0.65587902 1.42801
1.2517 0.643619 1.4110301
1.30059 0.58380097 1.42918
1.2542 0.59891403 1.40228
1.2634 0.67945403 1.42757
1.36823 0.55678397 1.47158
1.20145 0.74449998 1.49858
1.16782 0.73105901 1.4906501
1.14815 0.74145401 1.53623
1.20268 0.76332802 1.54743
1.23313 0.76400602 1.52888
1.22221 0.74623603 1.48692
1.09747 0.73723602 1.57927
1.1663001 0.755799 1.55748
1.1852 0.76505601 1.56523
1.16357 0.76528102 1.59047
1.12957 0.76030499 1.62612
1.0819401 0.74445701 1.63399
1.04275 0.72637701 1.60308
1.02118 0.711779 1.58155
1.17574 0.77671897 1.62123
1.06859 0.64411598 1.3943
1.2208101 0.60977298 1.38673
1.25674 0.55849701 1.40246
1.23274 0.58001697 1.3879499
1.30744 0.549353 1.43453
1.4104199 0.30332601 1.52079
1.3371 0.399167 1.4715
1.34749 0.465137 1.46945
1.36721 0.49439001 1.47727
1.2933199 0.43411699 1.43952
1.26501 0.47341701 1.41563
1.23004 0.40071899 1.39855
1.28089 0.38816801 1.4365799
1.18709 0.40747899 1.36894
1.29193 0.300179 1.4465899
1.31029 0.35861999 1.4582
1.34176 0.32558501 1.47719
1.34277 0.26592901 1.477
1.24111 0.33366901 1.41098
1.2641 0.234056 1.42682
1.2069401 0.27408901 1.38866
2.19608 -0.55068702 2.9491301
2.1850901 -0.59117001 2.9359701
2.16362 -0.57913202 2.9001501
2.16713 -0.54928899 2.9044399
2.1935 -0.58349198 2.9502299
2.20944 -0.58939701 2.9739499
2.2163601 -0.55220503 2.98545
2.1865301 -0.46908599 2.91852
2.21105 -0.511913 2.96661
2.1807401 -0.62892699 2.91714
2.16697 -0.604913 2.9019201
2.1890099 -0.59302598 2.9451799
2.1951001 -0.60985398 2.94783
2.12275 -0.59694999 2.83534
2.12395 -0.55402499 2.84128
1.05926 0.47515699 1.29254
1.01301 0.48256901 1.27204
1.04049 0.51137298 1.29129
1.07837 0.52681798 1.30919
1.10748 0.49835199 1.32037
1.08287 0.40032199 1.3031
1.02897 0.43217701 1.27306
1.02571 0.461272 1.27235
1.01019 0.511944 1.27911
0.992374 0.49685201 1.27337
0.99579602 0.48365101 1.2679
1.00934 0.447402 1.2657501
0.98125303 0.46569401 1.26679
1.0329 0.54183501 1.30568
1.0529799 0.53398401 1.3045599
1.01441 0.53013498 1.2917
2.1510999 -0.55495399 2.88322
2.15288 -0.54140699 2.8854201
1.23028 0.51115501 1.39029
1.18585 0.50071001 1.3661
1.22069 0.54595298 1.38265
2.447 -0.138878 3.3947599
2.4457901 -0.117334 3.4018199
2.4337201 -0.115282 3.3659401
2.4386301 -0.0701368 3.3996201
2.4263599 -0.078129798 3.3485
2.4050701 -0.26870999 3.26597
2.39188 -0.30007899 3.23419
2.37184 -0.25355801 3.19207
2.40645 -0.347132 3.2669899
2.4207301 -0.318656 3.3088
2.3475201 -0.32017499 3.1442399
2.3248601 -0.220743 3.1001201
2.3850801 -0.168016 3.2226801
2.41852 -0.367488 3.3062201
2.4330299 -0.31145099 3.3556199
2.4154201 -0.41705301 3.30476
2.4018099 -0.399207 3.26176
2.4235799 -0.46059099 3.3424301
2.40747 -0.51359099 3.28866
2.4279001 -0.41278499 3.3566799
2.2839501 -0.135194 3.02753
2.2999599 -0.202714 3.05445
2.3735299 -0.35816401 3.19524
2.35464 -0.34796801 3.1540999
2.3525 -0.38361701 3.15623
2.33674 -0.36594599 3.1251199
2.3815 -0.43494499 3.2172
2.3421199 -0.414377 3.14258
2.36742 -0.43107101 3.18887
2.3482299 -0.497356 3.15855
2.3187699 -0.48312199 3.11518
2.31704 -0.435628 3.10604
2.32024 -0.38245001 3.1015899
2.3613901 -0.52108002 3.17925
2.3745 -0.50601399 3.2039399
2.2759399 -0.376183 3.02935
2.2534399 -0.31882301 2.98631
2.27703 -0.304012 3.0221801
2.3141301 -0.35890701 3.08676
2.2969301 -0.437116 3.0764101
2.21488 -0.36070299 2.9360199
2.2539599 -0.251717 2.9818001
2.21714 -0.284812 2.93099
2.2758999 -0.211137 3.0148101
2.32197 -0.32054001 3.0989699
2.1698401 -0.321199 2.86536
2.17553 -0.223901 2.8664601
2.3482001 -0.56456399 3.15607
2.3313601 -0.54772401 3.1331501
2.32248 -0.52037698 3.1224
2.2953501 -0.53311598 3.0878301
2.27739 -0.50705302 3.0624101
2.23629 -0.56055099 3.02121
2.2546301 -0.53416002 3.03933
2.2527001 -0.57089502 3.0381401
2.23722 -0.59366697 3.01667
2.24526 -0.519036 3.02512
2.22437 -0.57866001 3.00388
2.22756 -0.56482202 3.0126901
2.2272 -0.55171299 3.0077801
2.26881 -0.55700803 3.05599
2.2576499 -0.55439103 3.0459299
2.2600999 -0.60845602 3.03317
2.26859 -0.58724803 3.04948
2.22925 -0.51077199 2.9977601
2.36693 -0.57405001 3.18765
2.3604 -0.61777502 3.16659
2.33094 -0.60496098 3.1210101
2.38831 -0.574606 3.2363601
2.37501 -0.65979898 3.19454
2.3454599 -0.62144202 3.13888
2.3478999 -0.675978 3.1333899
2.31075 -0.56044 3.1048901
2.3120601 -0.60394299 3.0947399
2.28862 -0.575858 3.07461
2.2275801 -0.59595299 3.00669
2.2265 -0.60991198 2.9963601
2.2495999 -0.62892801 3.0134101
2.20627 -0.64120001 2.9505999
2.2897899 -0.60911298 3.06389
2.17557 -0.66596901 2.89451
2.24038 -0.66330802 2.9853101
2.2233801 -0.67784798 2.95614
2.21229 -0.72638798 2.9229701
2.3328199 -0.63523197 3.1152799
2.1439199 -0.66968 2.8490701
2.31584 -0.65135401 3.0815799
2.3006699 -0.63339001 3.0664101
2.3297701 -0.67116702 3.0985799
2.3116901 -0.70192802 3.0616701
2.33371 -0.71371001 3.0975001
2.1677599 -0.043808501 2.8612001
2.1254101 -0.038768198 2.8041
2.19946 -0.111689 2.90206
2.25179 -0.77702498 2.9546499
2.2698901 -0.77665299 2.9775701
2.24983 -0.81012398 2.9452901
2.26511 -0.74239302 2.98106
2.28426 -0.758874 3.00035
2.2988801 -0.79317403 3.0208399
2.27632 -0.80799401 2.98387
2.2537501 -0.86261702 2.9491
2.23084 -0.83757299 2.9131801
2.2321801 -0.80159497 2.92348
2.28 -0.630288 3.04424
2.2656701 -0.68960202 3.0037501
2.2916701 -0.685422 3.0374999
2.2936101 -0.73838598 3.0240099
2.1403799 -0.63604099 2.4572599
2.14609 -0.64654899 2.42731
2.1605599 -0.61919302 2.4302599
2.1185901 -0.64900303 2.4909501
2.1270599 -0.66911 2.4532499
2.14414 -0.669451 2.4121699
2.16418 -0.63938701 2.39867
2.1783099 -0.60804999 2.40991
2.1687801 -0.59499198 2.4446299
2.1084599 -0.691917 2.4716799
2.0945001 -0.68243301 2.50336
2.0701499 -0.722058 2.5035901
2.0912299 -0.73106903 2.46208
2.1112599 -0.71773601 2.43873
2.1598799 -0.55403799 2.49138
2.14165 -0.60584003 2.4870999
2.14134 -0.57196099 2.5109301
2.1059101 -0.63073301 2.5230801
2.18644 -0.80188698 2.87008
2.1828001 -0.716833 2.88784
2.1359 -0.206507 2.80509
2.0954499 -0.219742 2.7332001
2.0884099 -0.20252 2.7
2.0920899 -0.187884 2.7281699
2.10203 -0.19585299 2.74844
2.0976501 -0.26227099 2.73579
2.08968 -0.25055501 2.7203901
2.0882699 -0.240151 2.7063301
2.09482 -0.198622 2.6719699
2.0979099 -0.247641 2.6718299
2.1201701 -0.236551 2.7769599
2.1170299 -0.286722 2.7730801
2.0817499 -0.020691801 2.7422099
2.07271 0.0026930999 2.73348
2.07024 -0.055282898 2.6898899
2.0706301 -0.109674 2.7005501
2.0771201 -0.111993 2.6825199
2.0901501 -0.14405 2.66712
2.09337 -0.113343 2.6528399
2.0807099 -0.083505198 2.66645
2.1083601 -0.16182999 2.64187
2.1503999 -0.35013399 2.84058
2.1364 -0.31190199 2.8106699
2.08916 -0.280449 2.70487
2.0953701 -0.30349201 2.7321899
2.0969701 -0.29826 2.6677201
2.2396901 -0.0314494 2.4165299
2.2244999 -0.028868901 2.45118
2.2342 -0.083469801 2.44925
2.2223401 -0.0086855004 2.4419601
2.22333 0.0043413001 2.42556
2.23733 0.0129036 2.38835
2.2061701 -0.0075778002 2.4748299
2.21015 -0.061160401 2.48979
2.2394199 -0.13826799 2.4617701
2.2551 -0.129757 2.42172
2.1944799 -0.0296028 2.5055101
2.2020099 0.032887001 2.44891
2.1884899 0.0036664 2.4997499
2.1525199 -0.52983499 2.51842
2.171 -0.50292897 2.50194
2.1470201 -0.49616799 2.5388501
2.1951499 -0.48062801 2.4730999
2.1908 -0.45382801 2.4995401
2.18748 -0.51396 2.4612801
2.16978 -0.472895 2.5201299
2.19888 -0.36482301 2.51441
2.1793201 -0.33867601 2.54479
2.1647401 -0.388652 2.5495501
2.1828499 -0.41745099 2.52402
2.2106099 -0.37235299 2.48755
2.2258 -0.32983199 2.48068
2.15887 -0.36015001 2.5621099
2.15031 -0.34174901 2.57967
2.15781 -0.30591699 2.5771899
2.1416099 -0.374771 2.58146
2.1447201 -0.407686 2.56744
2.1582799 -0.423868 2.54673
2.22012 -0.36435899 2.4654901
2.23263 -0.35561901 2.4398701
2.21767 -0.398561 2.4534299
2.12059 -0.364562 2.6159599
2.1340799 -0.34930101 2.5957201
2.1284499 -0.32115901 2.6147599
2.13113 -0.395583 2.59359
2.1379199 -0.27153 2.60673
2.11168 -0.29714599 2.6424501
2.17294 -0.44619599 2.52774
2.15203 -0.45986599 2.5443399
2.13798 -0.44062099 2.56759
2.1375301 -0.446587 2.84547
2.1120701 -0.42804801 2.803
2.1335001 -0.38619101 2.8239801
2.1312101 -0.522695 2.8512399
2.11147 -0.49371001 2.81756
2.1530099 -0.49420801 2.87749
2.1131799 -0.383248 2.78881
2.1029699 -0.41756901 2.7815001
2.1032901 -0.449586 2.7943599
2.08232 -0.39849699 2.69716
2.08986 -0.35268 2.72141
2.08444 -0.405828 2.72735
2.0769 -0.42840099 2.7104499
2.0743899 -0.44354799 2.6793699
2.09041 -0.40039301 2.66043
2.0885999 -0.36186001 2.6833601
2.08602 -0.34685701 2.6989801
2.07968 -0.462118 2.74283
2.09869 -0.374053 2.75336
2.0727501 -0.458105 2.71608
2.0800099 -0.486541 2.7555399
2.0645499 -0.49132201 2.7139699
2.10741 -0.327566 2.75998
2.0657699 -0.473167 2.6951799
2.09271 -0.50231099 2.7864001
2.07127 -0.5406 2.7521601
2.05336 -0.523812 2.7011299
2.0573101 -0.55105299 2.7260599
2.07622 -0.56138599 2.7644401
2.10267 -0.51828498 2.8062999
2.0938101 -0.57432097 2.79405
2.0698299 -0.61558002 2.7565601
2.0487599 -0.59023702 2.7206299
2.08497 -0.43054801 2.6556101
2.08621 -0.45438999 2.64253
2.0629599 -0.47810501 2.67681
2.06883 -0.47259101 2.6605999
2.10308 -0.37509999 2.6430199
2.0950501 -0.36924499 2.6600001
2.07951 -0.48239201 2.6377201
2.10355 -0.47145 2.60902
2.1170399 -0.438988 2.60131
2.09501 -0.42465499 2.6405101
2.04406 -0.55828702 2.7025499
2.0585001 -0.50799 2.65975
2.05966 -0.49474001 2.6894801
2.0406401 -0.54649597 2.6777501
2.04461 -0.545003 2.6534901
2.06461 -0.526631 2.6317201
2.0350101 -0.56875801 2.6618299
2.0267501 -0.60453898 2.66008
2.04861 -0.57295603 2.6310501
2.0322199 -0.58263701 2.6854701
2.0255301 -0.60043198 2.67997
2.0095401 -0.65574503 2.6665499
2.02105 -0.63637602 2.6380301
2.02788 -0.61873603 2.69279
2.0381701 -0.61300802 2.6235099
2.0807199 -0.58017099 2.58465
2.08532 -0.525832 2.60638
2.05108 -0.619304 2.59971
1.99668 -0.68133301 2.66996
1.99289 -0.69939399 2.64925
2.0109701 -0.66850197 2.6291399
2.0246401 -0.66899598 2.7052
2.0053401 -0.68047303 2.6862299
1.99579 -0.69596398 2.67658
1.9926701 -0.72140998 2.67466
1.98254 -0.73634201 2.6526999
1.98417 -0.73541802 2.63129
1.99334 -0.713606 2.62345
2.0023501 -0.69703901 2.6179099
2.02227 -0.69559997 2.58831
2.0309701 -0.64607 2.61128
2.0857699 -0.63358998 2.7786901
2.0592501 -0.66396898 2.74492
2.04719 -0.63670701 2.7278199
2.3263299 -0.58385599 2.03392
2.33568 -0.55502999 2.04111
2.3355701 -0.574871 2.0518799
2.3305199 -0.59872401 2.05952
2.3173499 -0.612252 2.0351601
2.34392 -0.56082201 2.0737801
2.34518 -0.52507299 2.0547199
2.1366401 -0.749286 2.82107
2.1905501 -0.84710801 2.8670001
2.1500101 -0.83208901 2.8222699
2.0962 -0.66668099 2.78845
2.1092501 -0.74354202 2.7899201
2.3380001 -0.594742 2.09182
2.31971 -0.63101101 2.08003
2.0710001 -0.692312 2.75649
2.0504 -0.70708901 2.73454
2.1154001 -0.63459402 2.8188701
2.09833 -0.82799298 2.7670801
2.08829 -0.74728799 2.7674
2.0118899 -0.70385098 2.6988001
2.0122001 -0.683819 2.6972301
2.03245 -0.71619201 2.56212
2.05902 -0.66572899 2.5627999
2.0029299 -0.72550398 2.5964301
2.0577199 -0.71127599 2.5320599
2.01015 -0.75406301 2.56426
2.08302 -0.618689 2.5618501
2.21241 -0.447467 2.4569499
2.2067299 -0.427293 2.47668
2.12779 -0.47834599 2.57235
2.22575 -0.42746601 2.42696
2.20733 -0.48606199 2.4405899
2.11218 -0.51246101 2.5802701
2.1098499 -0.401923 2.62514
2.11552 -0.57152301 2.54562
1.9763499 -0.76654202 2.6092601
1.9841599 -0.78995198 2.5694699
1.9929301 -0.758901 2.5848801
1.97324 -0.76451302 2.6448801
1.95864 -0.79009998 2.63041
1.95584 -0.80735701 2.6052699
2.0220101 -0.76573098 2.5356801
2.04582 -0.77183098 2.4873199
2.0869999 -0.75826502 2.4330699
1.98242 -0.82263899 2.5334699
2.0285499 -0.83395398 2.44031
2.0564799 -0.80830199 2.4231601
2.08971 -0.77656502 2.40045
2.1111701 -0.74208301 2.4074299
2.13153 -0.70360601 2.41172
2.1337399 -0.728576 2.38234
2.15433 -0.68610001 2.3824
2.16452 -0.71518701 2.3442099
2.1822701 -0.684017 2.3381701
2.1814201 -0.65320498 2.36046
2.0843799 -0.82094198 2.3595901
2.1079199 -0.765459 2.38153
2.1375899 -0.79763103 2.3010001
2.12168 -0.78073102 2.3422101
2.04883 -0.87162 2.3506601
2.0911 -0.84247899 2.3217499
2.16558 -0.74012601 2.3185699
2.19699 -0.72149998 2.2887299
2.21207 -0.69055402 2.2871101
2.23681 -0.64780998 2.2748699
2.2188699 -0.63310701 2.3169301
2.1919899 -0.74913198 2.2733099
2.17803 -0.782848 2.2588
2.2232599 -0.72878098 2.2449999
2.41361 -0.95705497 3.2959399
2.4074199 -0.89574403 3.2625
2.44383 -0.816984 3.4244699
2.4131401 -0.82869703 3.2754099
2.4216499 -0.78343099 3.30827
2.4319501 -0.81559902 3.3685999
2.4531701 -0.844823 3.48194
2.42539 -1.14618 3.3607199
2.42435 -1.0947 3.3607099
2.4177799 -1.20297 3.3132601
2.4143 -1.0880001 3.3062999
2.4396999 -1.21848 3.42013
2.4254799 -1.25999 3.3457401
2.4049699 -1.2175 3.2618999
2.4047101 -1.13325 3.26876
2.4126201 -1.3145601 3.2801399
2.39939 -1.26413 3.2413199
2.4047999 -1.02153 3.2632201
2.3956001 -0.94559401 3.2267599
2.3874199 -0.97527802 3.2070701
2.4021599 -0.866786 3.2422299
2.4046099 -1.08119 3.2681201
2.3945 -1.04888 3.2337
2.3803301 -1.02347 3.19469
2.3945 -1.1033601 3.23896
2.37187 -1.0831 3.1838
2.3522799 -1.0049 3.13078
2.3599899 -0.96374398 3.14361
2.37538 -1.14912 3.19191
2.37151 -1.20946 3.1780901
2.3501501 -1.16409 3.1412499
2.3529699 -1.1132801 3.14604
2.3956399 -1.1974601 3.23528
2.3831301 -1.22463 3.2017701
2.34215 -1.23557 3.12765
2.32657 -1.15311 3.0996001
2.3328099 -1.0463099 3.09846
2.44631 -1.31196 3.44713
2.4483099 -1.23348 3.4565301
2.4261899 -1.37692 3.3359599
2.46208 -1.30592 3.5296299
2.4584 -1.36542 3.50668
2.4570999 -1.24253 3.5016301
2.41717 -1.34997 3.29199
2.41119 -1.34705 3.2667601
2.4093299 -1.38509 3.25546
2.4146199 -1.42225 3.2784801
2.40833 -1.46664 3.25804
2.4047501 -1.43417 3.24336
2.41309 -1.47879 3.2795899
2.4040201 -1.52988 3.2476599
2.39849 -1.48821 3.2303901
2.3877699 -1.43164 3.2033601
2.3980601 -1.41315 3.22142
2.40242 -1.39718 3.2319901
2.3917501 -1.46928 3.2155499
2.3958199 -1.54559 3.2244899
2.39147 -1.39009 3.2083001
2.37397 -1.4222701 3.1784201
2.3727801 -1.47034 3.1807899
2.40025 -1.34247 3.234
2.37886 -1.3550299 3.1856301
2.3847499 -1.31494 3.19997
2.39031 -1.28167 3.2177899
2.3889 -1.5108 3.2108099
2.32463 -1.4050699 3.1046
2.0555799 -0.75899899 2.73578
2.10673 -0.89609098 2.7655201
2.0814099 -0.87602001 2.74473
2.12432 -0.88193703 2.78492
2.03493 -0.81529802 2.7127299
2.12605 -0.91321099 2.7859099
2.14872 -0.90616602 2.81394
2.1680601 -0.96649802 2.8380101
2.1298699 -0.973369 2.79353
2.09793 -0.92438197 2.75754
2.0658 -0.9052 2.7283001
2.0447199 -0.96790701 2.7139599
1.96778 -1.00792 2.6566501
2.01159 -0.95398402 2.6873701
1.98305 -1.06496 2.6717899
2.02933 -1.12651 2.7128501
2.1138101 -0.97314203 2.7772801
2.0961599 -1.03153 2.76509
2.06744 -0.97571301 2.73387
2.00984 -0.89345098 2.68749
2.04561 -0.907713 2.71228
2.1386099 -1.01287 2.80775
2.13431 -1.0867701 2.81021
2.1682 -1.07946 2.8476901
2.1777799 -1.02555 2.8522401
2.19804 -1.05893 2.8808501
2.16413 -1.1639301 2.859
2.1431601 -1.19367 2.8390701
2.1182101 -1.13162 2.7988801
2.08794 -1.12231 2.7658899
2.2155001 -1.00999 2.8967099
2.2125299 -0.955823 2.8927701
2.19875 -1.10729 2.8924799
2.18468 -1.22331 2.9010799
2.14991 -1.26598 2.86327
2.07496 -1.0813 2.7492399
2.0722201 -1.18335 2.7597201
2.0274701 -1.19997 2.7168801
1.95465 -1.23278 2.6526501
1.95929 -1.1919301 2.6536801
2.0064499 -0.743029 2.69398
1.98764 -0.75612903 2.6712999
2.0290201 -0.73613101 2.7149899
2.0033 -0.77557099 2.68944
1.98127 -0.80070001 2.6681001
1.9532501 -0.82733101 2.6395299
1.96146 -0.793908 2.64715
1.99849 -0.84994698 2.6815801
1.97287 -0.834988 2.6623499
