# .PCD v0.7 - Point Cloud Data file format
VERSION 0.7
FIELDS x y z
SIZE 4 4 4
TYPE F F F
COUNT 1 1 1
WIDTH 1791
HEIGHT 1
VIEWPOINT 0 0 0 1 0 0 0
POINTS 1791
DATA ascii
-159.765 172.155 30.5341
-157.955 172.965 30.5306
-158.653 172.54401 30.5341
-157.009 173.80299 30.5306
-157.65601 173.17 30.5341
-156.28999 174.84399 30.5306
-156.823 174.00301 30.5341
-155.842 176.026 30.5306
-156.19701 175 30.5341
-155.689 177.282 30.5306
-155.808 176.11099 30.5341
-155.842 178.537 30.5306
-155.808 178.452 30.5341
-155.67599 177.282 30.5341
-156.28999 179.71899 30.5306
-156.19701 179.563 30.5341
-157.009 180.75999 30.5306
-156.823 180.56 30.5341
-157.955 181.59801 30.5306
-157.65601 181.39301 30.5341
-159.075 182.186 30.5306
-158.653 182.02 30.5341
-160.30299 182.489 30.5306
-159.765 182.408 30.5341
-161.567 182.489 30.5306
-160.935 182.53999 30.5341
-162.795 182.186 30.5306
-162.105 182.408 30.5341
-163.91499 181.59801 30.5306
-163.217 182.02 30.5341
-164.86099 180.75999 30.5306
-164.214 181.39301 30.5341
-165.57899 179.71899 30.5306
-165.04601 180.56 30.5341
-165.673 179.563 30.5341
-164.935 177.282 31.5
-164.83501 176.39101 31.5
-164.83501 178.172 31.5
-164.868 178.179 31.758801
-164.96899 177.282 31.758801
-164.539 175.54601 31.5
-164.868 176.384 31.758801
-164.062 174.78799 31.5
-164.57001 175.53101 31.758801
-163.429 174.15401 31.5
-164.089 174.76601 31.758801
-162.67 173.67799 31.5
-163.45 174.12801 31.758801
-161.825 173.382 31.5
-162.685 173.647 31.758801
-160.935 173.282 31.5
-161.83299 173.349 31.758801
-160.045 173.382 31.5
-160.935 173.24699 31.758801
-159.19901 173.67799 31.5
-160.037 173.349 31.758801
-158.44099 174.15401 31.5
-159.185 173.647 31.758801
-157.808 174.78799 31.5
-158.42 174.12801 31.758801
-157.33099 175.54601 31.5
-157.78101 174.76601 31.758801
-157.035 176.39101 31.5
-157.3 175.53101 31.758801
-156.935 177.282 31.5
-157.002 176.384 31.758801
-157.035 178.172 31.5
-156.901 177.282 31.758801
-157.33099 179.017 31.5
-157.002 178.179 31.758801
-157.808 179.77499 31.5
-157.3 179.032 31.758801
-158.44099 180.409 31.5
-157.78101 179.797 31.758801
-159.19901 180.88499 31.5
-158.42 180.436 31.758801
-160.045 181.181 31.5
-159.185 180.916 31.758801
-160.935 181.282 31.5
-160.037 181.214 31.758801
-161.825 181.181 31.5
-160.935 181.31599 31.758801
-162.67 180.88499 31.5
-161.83299 181.214 31.758801
-163.429 180.409 31.5
-162.685 180.916 31.758801
-164.062 179.77499 31.5
-163.45 180.436 31.758801
-164.539 179.017 31.5
-164.089 179.797 31.758801
-164.57001 179.032 31.758801
-166.435 177.282 30.634001
-166.297 176.058 30.634001
-166.642 177.282 30.7929
-166.297 178.505 30.634001
-166.49899 176.01199 30.7929
-166.80099 177.282 31
-166.49899 178.55099 30.7929
-166.65401 175.976 31
-166.901 177.282 31.241199
-166.65401 178.58701 31
-166.75101 175.95399 31.241199
-166.935 177.282 31.5
-166.75101 178.60899 31.241199
-166.784 175.946 31.5
-166.901 177.282 31.758801
-166.784 178.617 31.5
-166.75101 175.95399 31.758801
-166.80099 177.282 32
-166.75101 178.60899 31.758801
-166.65401 175.976 32
-166.642 177.282 32.2071
-166.65401 178.58701 32
-166.49899 176.01199 32.2071
-166.435 177.282 32.366001
-166.49899 178.55099 32.2071
-166.297 176.058 32.366001
-166.194 177.282 32.4659
-166.297 178.505 32.366001
-166.062 176.11099 32.4659
-165.935 177.282 32.5
-166.062 178.452 32.4659
-165.80901 176.16901 32.5
-165.67599 177.282 32.4659
-165.80901 178.394 32.5
-165.55701 176.22701 32.4659
-165.435 177.282 32.366001
-165.55701 178.33701 32.4659
-165.32201 176.28 32.366001
-165.228 177.282 32.2071
-165.32201 178.283 32.366001
-165.12 176.326 32.2071
-165.069 177.282 32
-165.12 178.237 32.2071
-164.965 176.362 32
-164.965 178.202 32
-165.89 174.895 30.634001
-166.077 174.80499 30.7929
-166.22 174.73599 31
-166.31 174.69299 31.241199
-166.341 174.67799 31.5
-166.31 174.69299 31.758801
-166.22 174.73599 32
-166.077 174.80499 32.2071
-165.89 174.895 32.366001
-165.673 175 32.4659
-165.44 175.112 32.5
-165.20599 175.22501 32.4659
-164.989 175.32899 32.366001
-164.80299 175.41901 32.2071
-164.66 175.48801 32
-165.235 173.85201 30.634001
-165.397 173.72301 30.7929
-165.521 173.62399 31
-165.599 173.562 31.241199
-165.62601 173.541 31.5
-165.599 173.562 31.758801
-165.521 173.62399 32
-165.397 173.72301 32.2071
-165.235 173.85201 32.366001
-165.04601 174.00301 32.4659
-164.84399 174.164 32.5
-164.642 174.326 32.4659
-164.453 174.476 32.366001
-164.291 174.605 32.2071
-164.16701 174.70399 32
-164.364 172.98199 30.634001
-164.493 172.82001 30.7929
-164.592 172.69501 31
-164.655 172.617 31.241199
-164.67599 172.591 31.5
-164.655 172.617 31.758801
-164.592 172.69501 32
-164.493 172.82001 32.2071
-164.364 172.98199 32.366001
-164.214 173.17 32.4659
-164.052 173.37199 32.5
-163.89101 173.575 32.4659
-163.741 173.763 32.366001
-163.61099 173.925 32.2071
-163.51199 174.049 32
-163.321 172.326 30.634001
-163.411 172.14 30.7929
-163.48 171.99699 31
-163.52299 171.90601 31.241199
-163.53799 171.87601 31.5
-163.52299 171.90601 31.758801
-163.48 171.99699 32
-163.411 172.14 32.2071
-163.321 172.326 32.366001
-163.217 172.54401 32.4659
-163.104 172.77699 32.5
-162.992 173.00999 32.4659
-162.88699 173.22701 32.366001
-162.798 173.414 32.2071
-162.729 173.55701 32
-162.159 171.91901 30.634001
-162.205 171.718 30.7929
-162.24001 171.563 31
-162.26199 171.465 31.241199
-162.27 171.43201 31.5
-162.26199 171.465 31.758801
-162.24001 171.563 32
-162.205 171.718 32.2071
-162.159 171.91901 32.366001
-162.105 172.155 32.4659
-162.048 172.407 32.5
-161.99001 172.659 32.4659
-161.936 172.894 32.366001
-161.89 173.09599 32.2071
-161.855 173.25101 32
-160.935 171.782 30.634001
-160.935 171.57401 30.7929
-160.935 171.41499 31
-160.935 171.31599 31.241199
-160.935 171.282 31.5
-160.935 171.31599 31.758801
-160.935 171.41499 32
-160.935 171.57401 32.2071
-160.935 171.782 32.366001
-160.935 172.02299 32.4659
-160.935 172.282 32.5
-160.935 172.53999 32.4659
-160.935 172.782 32.366001
-160.935 172.989 32.2071
-160.935 173.14799 32
-159.711 171.91901 30.634001
-159.66499 171.718 30.7929
-159.63 171.563 31
-159.60699 171.465 31.241199
-159.60001 171.43201 31.5
-159.60699 171.465 31.758801
-159.63 171.563 32
-159.66499 171.718 32.2071
-159.711 171.91901 32.366001
-159.765 172.155 32.4659
-159.82201 172.407 32.5
-159.88 172.659 32.4659
-159.93401 172.894 32.366001
-159.98 173.09599 32.2071
-160.015 173.25101 32
-158.548 172.326 30.634001
-158.459 172.14 30.7929
-158.39 171.99699 31
-158.34599 171.90601 31.241199
-158.332 171.87601 31.5
-158.34599 171.90601 31.758801
-158.39 171.99699 32
-158.459 172.14 32.2071
-158.548 172.326 32.366001
-158.653 172.54401 32.4659
-158.76601 172.77699 32.5
-158.87801 173.00999 32.4659
-158.98199 173.22701 32.366001
-159.07201 173.414 32.2071
-159.14101 173.55701 32
-157.506 172.98199 30.634001
-157.377 172.82001 30.7929
-157.27699 172.69501 31
-157.215 172.617 31.241199
-157.194 172.591 31.5
-157.215 172.617 31.758801
-157.27699 172.69501 32
-157.377 172.82001 32.2071
-157.506 172.98199 32.366001
-157.65601 173.17 32.4659
-157.817 173.37199 32.5
-157.979 173.575 32.4659
-158.129 173.763 32.366001
-158.258 173.925 32.2071
-158.35699 174.049 32
-156.63499 173.85201 30.634001
-156.47301 173.72301 30.7929
-156.349 173.62399 31
-156.27 173.562 31.241199
-156.244 173.541 31.5
-156.27 173.562 31.758801
-156.349 173.62399 32
-156.47301 173.72301 32.2071
-156.63499 173.85201 32.366001
-156.823 174.00301 32.4659
-157.026 174.164 32.5
-157.228 174.326 32.4659
-157.41701 174.476 32.366001
-157.57899 174.605 32.2071
-157.703 174.70399 32
-155.98 174.895 30.634001
-155.793 174.80499 30.7929
-155.64999 174.73599 31
-155.56 174.69299 31.241199
-155.52901 174.67799 31.5
-155.56 174.69299 31.758801
-155.64999 174.73599 32
-155.793 174.80499 32.2071
-155.98 174.895 32.366001
-156.19701 175 32.4659
-156.42999 175.112 32.5
-156.66299 175.22501 32.4659
-156.88 175.32899 32.366001
-157.067 175.41901 32.2071
-157.21001 175.48801 32
-155.573 176.058 30.634001
-155.371 176.01199 30.7929
-155.216 175.976 31
-155.118 175.95399 31.241199
-155.08501 175.946 31.5
-155.118 175.95399 31.758801
-155.216 175.976 32
-155.371 176.01199 32.2071
-155.573 176.058 32.366001
-155.808 176.11099 32.4659
-156.06 176.16901 32.5
-156.313 176.22701 32.4659
-156.548 176.28 32.366001
-156.75 176.326 32.2071
-156.905 176.362 32
-155.435 177.282 30.634001
-155.228 177.282 30.7929
-155.069 177.282 31
-154.96899 177.282 31.241199
-154.935 177.282 31.5
-154.96899 177.282 31.758801
-155.069 177.282 32
-155.228 177.282 32.2071
-155.435 177.282 32.366001
-155.67599 177.282 32.4659
-155.935 177.282 32.5
-156.194 177.282 32.4659
-156.435 177.282 32.366001
-156.642 177.282 32.2071
-156.80099 177.282 32
-155.573 178.505 30.634001
-155.98 179.668 30.634001
-155.371 178.55099 30.7929
-155.793 179.758 30.7929
-155.216 178.58701 31
-155.64999 179.827 31
-155.118 178.60899 31.241199
-155.56 179.87 31.241199
-155.08501 178.617 31.5
-155.52901 179.88499 31.5
-155.118 178.60899 31.758801
-155.56 179.87 31.758801
-155.216 178.58701 32
-155.64999 179.827 32
-155.371 178.55099 32.2071
-155.793 179.758 32.2071
-155.573 178.505 32.366001
-155.98 179.668 32.366001
-155.808 178.452 32.4659
-156.19701 179.563 32.4659
-156.06 178.394 32.5
-156.42999 179.451 32.5
-156.313 178.33701 32.4659
-156.66299 179.339 32.4659
-156.548 178.283 32.366001
-156.88 179.23399 32.366001
-156.75 178.237 32.2071
-157.067 179.144 32.2071
-156.905 178.202 32
-157.21001 179.075 32
-156.63499 180.711 30.634001
-156.47301 180.84 30.7929
-156.349 180.939 31
-156.27 181.00101 31.241199
-156.244 181.02299 31.5
-156.27 181.00101 31.758801
-156.349 180.939 32
-156.47301 180.84 32.2071
-156.63499 180.711 32.366001
-156.823 180.56 32.4659
-157.026 180.399 32.5
-157.228 180.23801 32.4659
-157.41701 180.08701 32.366001
-157.57899 179.95799 32.2071
-157.703 179.85899 32
-157.506 181.582 30.634001
-157.377 181.744 30.7929
-157.27699 181.868 31
-157.215 181.946 31.241199
-157.194 181.97301 31.5
-157.215 181.946 31.758801
-157.27699 181.868 32
-157.377 181.744 32.2071
-157.506 181.582 32.366001
-157.65601 181.39301 32.4659
-157.817 181.19099 32.5
-157.979 180.98801 32.4659
-158.129 180.8 32.366001
-158.258 180.638 32.2071
-158.35699 180.51401 32
-158.548 182.237 30.634001
-158.459 182.423 30.7929
-158.39 182.567 31
-158.34599 182.657 31.241199
-158.332 182.687 31.5
-158.34599 182.657 31.758801
-158.39 182.567 32
-158.459 182.423 32.2071
-158.548 182.237 32.366001
-158.653 182.02 32.4659
-158.76601 181.786 32.5
-158.87801 181.55299 32.4659
-158.98199 181.336 32.366001
-159.07201 181.149 32.2071
-159.14101 181.006 32
-159.711 182.644 30.634001
-159.66499 182.84599 30.7929
-159.63 183.00101 31
-159.60699 183.09801 31.241199
-159.60001 183.131 31.5
-159.60699 183.09801 31.758801
-159.63 183.00101 32
-159.66499 182.84599 32.2071
-159.711 182.644 32.366001
-159.765 182.408 32.4659
-159.82201 182.15601 32.5
-159.88 181.90401 32.4659
-159.93401 181.66901 32.366001
-159.98 181.467 32.2071
-160.015 181.312 32
-160.935 182.782 30.634001
-160.935 182.989 30.7929
-160.935 183.14799 31
-160.935 183.24699 31.241199
-160.935 183.282 31.5
-160.935 183.24699 31.758801
-160.935 183.14799 32
-160.935 182.989 32.2071
-160.935 182.782 32.366001
-160.935 182.53999 32.4659
-160.935 182.282 32.5
-160.935 182.02299 32.4659
-160.935 181.782 32.366001
-160.935 181.57401 32.2071
-160.935 181.41499 32
-162.159 182.644 30.634001
-162.205 182.84599 30.7929
-162.24001 183.00101 31
-162.26199 183.09801 31.241199
-162.27 183.131 31.5
-162.26199 183.09801 31.758801
-162.24001 183.00101 32
-162.205 182.84599 32.2071
-162.159 182.644 32.366001
-162.105 182.408 32.4659
-162.048 182.15601 32.5
-161.99001 181.90401 32.4659
-161.936 181.66901 32.366001
-161.89 181.467 32.2071
-161.855 181.312 32
-163.321 182.237 30.634001
-163.411 182.423 30.7929
-163.48 182.567 31
-163.52299 182.657 31.241199
-163.53799 182.687 31.5
-163.52299 182.657 31.758801
-163.48 182.567 32
-163.411 182.423 32.2071
-163.321 182.237 32.366001
-163.217 182.02 32.4659
-163.104 181.786 32.5
-162.992 181.55299 32.4659
-162.88699 181.336 32.366001
-162.798 181.149 32.2071
-162.729 181.006 32
-164.364 181.582 30.634001
-164.493 181.744 30.7929
-164.592 181.868 31
-164.655 181.946 31.241199
-164.67599 181.97301 31.5
-164.655 181.946 31.758801
-164.592 181.868 32
-164.493 181.744 32.2071
-164.364 181.582 32.366001
-164.214 181.39301 32.4659
-164.052 181.19099 32.5
-163.89101 180.98801 32.4659
-163.741 180.8 32.366001
-163.61099 180.638 32.2071
-163.51199 180.51401 32
-165.235 180.711 30.634001
-165.397 180.84 30.7929
-165.521 180.939 31
-165.599 181.00101 31.241199
-165.62601 181.02299 31.5
-165.599 181.00101 31.758801
-165.521 180.939 32
-165.397 180.84 32.2071
-165.235 180.711 32.366001
-165.04601 180.56 32.4659
-164.84399 180.399 32.5
-164.642 180.23801 32.4659
-164.453 180.08701 32.366001
-164.291 179.95799 32.2071
-164.16701 179.85899 32
-165.89 179.668 30.634001
-166.077 179.758 30.7929
-166.22 179.827 31
-166.31 179.87 31.241199
-166.341 179.88499 31.5
-166.31 179.87 31.758801
-166.22 179.827 32
-166.077 179.758 32.2071
-165.89 179.668 32.366001
-165.673 179.563 32.4659
-165.44 179.451 32.5
-165.20599 179.339 32.4659
-164.989 179.23399 32.366001
-164.80299 179.144 32.2071
-164.66 179.075 32
-167.535 178.68401 23.846001
-167.68201 177.282 23.846001
-167.535 175.879 23.846001
-167.099 174.537 23.846001
-167.099 180.026 23.846001
-166.394 181.248 23.846001
-165.45 182.29601 23.846001
-164.30901 183.125 23.846001
-163.02 183.69901 23.846001
-161.64 183.992 23.846001
-158.85001 183.69901 23.846001
-160.23 183.992 23.846001
-157.561 183.125 23.846001
-156.42 182.29601 23.846001
-155.476 181.248 23.846001
-154.771 180.026 23.846001
-154.33501 178.68401 23.846001
-154.33501 175.879 23.846001
-154.188 177.282 23.846001
-154.771 174.537 23.846001
-155.476 173.31599 23.846001
-156.42 172.267 23.846001
-157.561 171.438 23.846001
-158.85001 170.864 23.846001
-160.23 170.571 23.846001
-163.02 170.864 23.846001
-161.64 170.571 23.846001
-164.30901 171.438 23.846001
-165.45 172.267 23.846001
-166.394 173.31599 23.846001
-168.935 177.282 12.5566
-168.78101 175.72099 12.5566
-168.745 175.728 14.4955
-168.89799 177.282 14.4955
-168.78101 178.842 12.5566
-168.326 174.22 12.5566
-168.29201 174.23399 14.4955
-167.58701 172.83701 12.5566
-167.556 172.85699 14.4955
-166.592 171.625 12.5566
-166.56599 171.64999 14.4955
-165.379 170.63 12.5566
-165.35899 170.66 14.4955
-163.996 169.89101 12.5566
-163.98199 169.924 14.4955
-162.496 169.435 12.5566
-162.48801 169.47099 14.4955
-160.935 169.282 12.5566
-160.935 169.31799 14.4955
-159.37399 169.435 12.5566
-159.381 169.47099 14.4955
-157.873 169.89101 12.5566
-157.88699 169.924 14.4955
-156.49001 170.63 12.5566
-156.511 170.66 14.4955
-155.278 171.625 12.5566
-155.304 171.64999 14.4955
-154.283 172.83701 12.5566
-154.314 172.85699 14.4955
-153.54401 174.22 12.5566
-153.578 174.23399 14.4955
-153.089 175.72099 12.5566
-153.12399 175.728 14.4955
-152.935 177.282 12.5566
-152.97099 177.282 14.4955
-153.089 178.842 12.5566
-153.12399 178.83501 14.4955
-153.54401 180.343 12.5566
-153.578 180.32899 14.4955
-154.283 181.726 12.5566
-154.314 181.70599 14.4955
-155.278 182.938 12.5566
-155.304 182.91299 14.4955
-156.49001 183.933 12.5566
-156.511 183.903 14.4955
-157.873 184.673 12.5566
-157.88699 184.63901 14.4955
-159.37399 185.12801 12.5566
-159.381 185.092 14.4955
-160.935 185.282 12.5566
-160.935 185.245 14.4955
-162.496 185.12801 12.5566
-162.48801 185.092 14.4955
-163.996 184.673 12.5566
-163.98199 184.63901 14.4955
-165.379 183.933 12.5566
-165.35899 183.903 14.4955
-166.592 182.938 12.5566
-166.56599 182.91299 14.4955
-167.58701 181.726 12.5566
-167.556 181.70599 14.4955
-168.326 180.343 12.5566
-168.29201 180.32899 14.4955
-168.745 178.83501 14.4955
-167.888 178.66499 22.196199
-168.02499 177.282 22.196199
-167.888 175.89799 22.196199
-167.485 179.995 22.196199
-166.83 181.22 22.196199
-165.948 182.295 22.196199
-164.87399 183.17599 22.196199
-163.64799 183.832 22.196199
-162.31799 184.235 22.196199
-160.935 184.371 22.196199
-159.552 184.235 22.196199
-158.222 183.832 22.196199
-156.996 183.17599 22.196199
-155.922 182.295 22.196199
-155.03999 181.22 22.196199
-154.38499 179.995 22.196199
-153.981 178.66499 22.196199
-153.981 175.89799 22.196199
-153.845 177.282 22.196199
-154.38499 174.56799 22.196199
-155.03999 173.343 22.196199
-155.922 172.26801 22.196199
-156.996 171.38699 22.196199
-158.222 170.73199 22.196199
-159.552 170.328 22.196199
-160.935 170.192 22.196199
-162.31799 170.328 22.196199
-163.64799 170.73199 22.196199
-164.87399 171.38699 22.196199
-165.948 172.26801 22.196199
-166.83 173.343 22.196199
-167.485 174.56799 22.196199
-168.60699 177.282 18.362301
-168.459 175.785 18.362301
-168.459 178.778 18.362301
-168.02299 174.34599 18.362301
-167.314 173.019 18.362301
-166.36 171.85699 18.362301
-165.19701 170.903 18.362301
-163.871 170.194 18.362301
-162.43201 169.757 18.362301
-160.935 169.61 18.362301
-159.438 169.757 18.362301
-157.99899 170.194 18.362301
-156.673 170.903 18.362301
-155.50999 171.85699 18.362301
-154.556 173.019 18.362301
-153.847 174.34599 18.362301
-153.411 175.785 18.362301
-153.263 177.282 18.362301
-153.411 178.778 18.362301
-153.847 180.217 18.362301
-154.556 181.54401 18.362301
-155.50999 182.70599 18.362301
-156.673 183.66 18.362301
-157.99899 184.369 18.362301
-159.438 184.806 18.362301
-160.935 184.953 18.362301
-162.43201 184.806 18.362301
-163.871 184.369 18.362301
-165.19701 183.66 18.362301
-166.36 182.70599 18.362301
-167.314 181.54401 18.362301
-168.02299 180.217 18.362301
-156.935 177.282 0.27077201
-157.071 176.246 0.27077201
-164.799 176.246 0.27077201
-164.935 177.282 0.27077201
-157.071 178.317 0.27077201
-157.47099 175.282 0.27077201
-164.399 175.282 0.27077201
-158.106 174.453 0.27077201
-163.763 174.453 0.27077201
-158.935 173.81799 0.27077201
-162.935 173.81799 0.27077201
-159.89999 173.418 0.27077201
-161.97 173.418 0.27077201
-160.935 173.282 0.27077201
-164.799 178.317 0.27077201
-164.399 179.282 0.27077201
-157.47099 179.282 0.27077201
-163.763 180.11 0.27077201
-158.106 180.11 0.27077201
-162.935 180.746 0.27077201
-158.935 180.746 0.27077201
-161.97 181.145 0.27077201
-159.89999 181.145 0.27077201
-160.935 181.282 0.27077201
-168.78101 178.842 4.2707701
-168.935 177.282 4.2707701
-168.326 180.343 4.2707701
-167.58701 181.726 4.2707701
-166.592 182.938 4.2707701
-165.379 183.933 4.2707701
-163.996 184.673 4.2707701
-162.496 185.12801 4.2707701
-160.935 185.282 4.2707701
-159.37399 185.12801 4.2707701
-157.873 184.673 4.2707701
-156.49001 183.933 4.2707701
-155.278 182.938 4.2707701
-154.283 181.726 4.2707701
-153.54401 180.343 4.2707701
-153.089 178.842 4.2707701
-152.935 177.282 4.2707701
-153.089 175.72099 4.2707701
-153.54401 174.22 4.2707701
-154.283 172.83701 4.2707701
-155.278 171.625 4.2707701
-156.49001 170.63 4.2707701
-157.873 169.89101 4.2707701
-159.37399 169.435 4.2707701
-160.935 169.282 4.2707701
-162.496 169.435 4.2707701
-163.996 169.89101 4.2707701
-165.379 170.63 4.2707701
-166.592 171.625 4.2707701
-167.58701 172.83701 4.2707701
-168.326 174.22 4.2707701
-168.78101 175.72099 4.2707701
-153.222 175.74699 3.2355001
-153.071 177.282 3.2355001
-153.67 174.272 3.2355001
-154.396 172.91299 3.2355001
-155.37399 171.72099 3.2355001
-156.56599 170.743 3.2355001
-157.92599 170.01601 3.2355001
-159.401 169.569 3.2355001
-160.935 169.418 3.2355001
-162.46899 169.569 3.2355001
-163.944 170.01601 3.2355001
-165.304 170.743 3.2355001
-166.495 171.72099 3.2355001
-167.47301 172.91299 3.2355001
-168.2 174.272 3.2355001
-168.64799 175.74699 3.2355001
-168.799 177.282 3.2355001
-168.64799 178.81599 3.2355001
-168.2 180.291 3.2355001
-167.47301 181.64999 3.2355001
-166.495 182.842 3.2355001
-165.304 183.82001 3.2355001
-163.944 184.547 3.2355001
-162.46899 184.994 3.2355001
-160.935 185.145 3.2355001
-159.401 184.994 3.2355001
-157.92599 184.547 3.2355001
-156.56599 183.82001 3.2355001
-155.37399 182.842 3.2355001
-154.396 181.64999 3.2355001
-153.67 180.291 3.2355001
-153.222 178.81599 3.2355001
-155.996 178.26401 0.407069
-155.89999 177.282 0.407069
-155.996 176.299 0.407069
-156.283 179.20799 0.407069
-156.748 180.07899 0.407069
-158.13699 181.468 0.407069
-157.37399 180.842 0.407069
-159.008 181.93401 0.407069
-159.952 182.22 0.407069
-161.91701 182.22 0.407069
-160.935 182.317 0.407069
-162.862 181.93401 0.407069
-163.73199 181.468 0.407069
-165.12199 180.07899 0.407069
-164.495 180.842 0.407069
-165.58701 179.20799 0.407069
-165.873 178.26401 0.407069
-165.873 176.299 0.407069
-165.97 177.282 0.407069
-165.58701 175.355 0.407069
-165.12199 174.48399 0.407069
-163.73199 173.095 0.407069
-164.495 173.72099 0.407069
-162.862 172.63 0.407069
-161.91701 172.343 0.407069
-159.952 172.343 0.407069
-160.935 172.246 0.407069
-159.008 172.63 0.407069
-158.13699 173.095 0.407069
-156.748 174.48399 0.407069
-157.37399 173.72099 0.407069
-156.283 175.355 0.407069
-153.47099 177.282 2.2707701
-153.614 175.825 2.2707701
-154.106 177.282 1.44235
-153.614 178.73801 2.2707701
-154.23801 175.94901 1.44235
-154.935 177.282 0.80667001
-154.23801 178.614 1.44235
-155.05 176.11099 0.80667001
-155.05 178.452 0.80667001
-154.039 174.425 2.2707701
-154.62601 174.668 1.44235
-155.392 174.98599 0.80667001
-154.729 173.13499 2.2707701
-155.257 173.48801 1.44235
-155.946 173.948 0.80667001
-155.657 172.004 2.2707701
-156.106 172.453 1.44235
-156.692 173.039 0.80667001
-156.78799 171.075 2.2707701
-157.14101 171.604 1.44235
-157.60201 172.293 0.80667001
-158.07899 170.386 2.2707701
-158.32201 170.97301 1.44235
-158.63901 171.73801 0.80667001
-159.479 169.961 2.2707701
-159.603 170.584 1.44235
-159.76401 171.397 0.80667001
-160.935 169.81799 2.2707701
-160.935 170.453 1.44235
-160.935 171.282 0.80667001
-162.39101 169.961 2.2707701
-162.267 170.584 1.44235
-162.105 171.397 0.80667001
-163.791 170.386 2.2707701
-163.548 170.97301 1.44235
-163.231 171.73801 0.80667001
-165.082 171.075 2.2707701
-164.729 171.604 1.44235
-164.26801 172.293 0.80667001
-166.213 172.004 2.2707701
-165.763 172.453 1.44235
-165.17799 173.039 0.80667001
-167.14101 173.13499 2.2707701
-166.61301 173.48801 1.44235
-165.924 173.948 0.80667001
-167.83099 174.425 2.2707701
-167.243 174.668 1.44235
-166.478 174.98599 0.80667001
-168.256 175.825 2.2707701
-167.632 175.94901 1.44235
-166.82001 176.11099 0.80667001
-168.399 177.282 2.2707701
-167.763 177.282 1.44235
-166.935 177.282 0.80667001
-168.256 178.73801 2.2707701
-167.632 178.614 1.44235
-166.82001 178.452 0.80667001
-167.83099 180.138 2.2707701
-167.243 179.895 1.44235
-166.478 179.578 0.80667001
-167.14101 181.42799 2.2707701
-166.61301 181.075 1.44235
-165.924 180.61501 0.80667001
-166.213 182.55901 2.2707701
-165.763 182.11 1.44235
-165.17799 181.524 0.80667001
-165.082 183.48801 2.2707701
-164.729 182.959 1.44235
-164.26801 182.27 0.80667001
-163.791 184.17799 2.2707701
-163.548 183.59 1.44235
-163.231 182.825 0.80667001
-162.39101 184.60201 2.2707701
-162.267 183.979 1.44235
-162.105 183.166 0.80667001
-160.935 184.746 2.2707701
-160.935 184.11 1.44235
-160.935 183.282 0.80667001
-159.479 184.60201 2.2707701
-159.603 183.979 1.44235
-159.76401 183.166 0.80667001
-158.07899 184.17799 2.2707701
-158.32201 183.59 1.44235
-158.63901 182.825 0.80667001
-156.78799 183.48801 2.2707701
-157.14101 182.959 1.44235
-157.60201 182.27 0.80667001
-155.657 182.55901 2.2707701
-156.106 182.11 1.44235
-156.692 181.524 0.80667001
-154.729 181.42799 2.2707701
-155.257 181.075 1.44235
-155.946 180.61501 0.80667001
-154.039 180.138 2.2707701
-154.62601 179.895 1.44235
-155.392 179.578 0.80667001
-165.31599 177.282 31.041
-165.16701 178.416 31.041
-165.16701 176.14799 31.041
-164.729 179.472 31.041
-164.033 180.38 31.041
-163.12601 181.076 31.041
-162.069 181.51401 31.041
-160.935 181.66299 31.041
-159.80099 181.51401 31.041
-158.744 181.076 31.041
-157.83701 180.38 31.041
-157.14 179.472 31.041
-156.703 178.416 31.041
-156.55299 177.282 31.041
-156.703 176.14799 31.041
-157.14 175.091 31.041
-157.83701 174.183 31.041
-158.744 173.487 31.041
-159.80099 173.049 31.041
-160.935 172.89999 31.041
-162.069 173.049 31.041
-163.12601 173.487 31.041
-164.033 174.183 31.041
-164.729 175.091 31.041
-153.16499 177.282 4.2707701
-153.314 178.798 4.2707701
-153.44 178.772 3.29497
-153.293 177.282 3.29497
-153.314 175.76601 4.2707701
-153.756 180.255 4.2707701
-153.875 180.20599 3.29497
-154.474 181.59801 4.2707701
-154.58099 181.52699 3.29497
-155.44099 182.776 4.2707701
-155.53101 182.685 3.29497
-156.618 183.742 4.2707701
-156.689 183.63499 3.29497
-157.961 184.46001 4.2707701
-158.00999 184.342 3.29497
-159.41901 184.90199 4.2707701
-159.444 184.77699 3.29497
-160.935 185.052 4.2707701
-160.935 184.923 3.29497
-162.451 184.90199 4.2707701
-162.42599 184.77699 3.29497
-163.908 184.46001 4.2707701
-163.85899 184.342 3.29497
-165.252 183.742 4.2707701
-165.17999 183.63499 3.29497
-166.429 182.776 4.2707701
-166.338 182.685 3.29497
-167.396 181.59801 4.2707701
-167.289 181.52699 3.29497
-168.114 180.255 4.2707701
-167.995 180.20599 3.29497
-168.556 178.798 4.2707701
-168.42999 178.772 3.29497
-168.705 177.282 4.2707701
-168.577 177.282 3.29497
-168.556 175.76601 4.2707701
-168.42999 175.791 3.29497
-168.114 174.308 4.2707701
-167.995 174.35699 3.29497
-167.396 172.965 4.2707701
-167.289 173.036 3.29497
-166.429 171.787 4.2707701
-166.338 171.87801 3.29497
-165.252 170.821 4.2707701
-165.17999 170.92799 3.29497
-163.908 170.103 4.2707701
-163.85899 170.22099 3.29497
-162.451 169.661 4.2707701
-162.42599 169.787 3.29497
-160.935 169.511 4.2707701
-160.935 169.64 3.29497
-159.41901 169.661 4.2707701
-159.444 169.787 3.29497
-157.961 170.103 4.2707701
-158.00999 170.22099 3.29497
-156.618 170.821 4.2707701
-156.689 170.92799 3.29497
-155.44099 171.787 4.2707701
-155.53101 171.87801 3.29497
-154.474 172.965 4.2707701
-154.58099 173.036 3.29497
-153.756 174.308 4.2707701
-153.875 174.35699 3.29497
-153.44 175.791 3.29497
-156.935 177.282 0.50055498
-157.071 176.246 0.50055498
-156.05499 176.311 0.629022
-155.959 177.282 0.629022
-156.05499 178.252 0.629022
-157.071 178.317 0.50055498
-157.47099 175.282 0.50055498
-156.338 175.377 0.629022
-158.106 174.453 0.50055498
-156.798 174.517 0.629022
-158.935 173.81799 0.50055498
-158.17101 173.144 0.629022
-157.41701 173.763 0.629022
-159.89999 173.418 0.50055498
-159.03101 172.68401 0.629022
-160.935 173.282 0.50055498
-159.964 172.401 0.629022
-161.97 173.418 0.50055498
-161.90601 172.401 0.629022
-160.935 172.306 0.629022
-162.935 173.81799 0.50055498
-162.839 172.68401 0.629022
-163.763 174.453 0.50055498
-163.69901 173.144 0.629022
-164.399 175.282 0.50055498
-165.07201 174.517 0.629022
-164.453 173.763 0.629022
-164.799 176.246 0.50055498
-165.532 175.377 0.629022
-164.935 177.282 0.50055498
-165.815 176.311 0.629022
-164.799 178.317 0.50055498
-165.815 178.252 0.629022
-165.911 177.282 0.629022
-164.399 179.282 0.50055498
-165.532 179.186 0.629022
-163.763 180.11 0.50055498
-165.07201 180.04601 0.629022
-162.935 180.746 0.50055498
-163.69901 181.41901 0.629022
-164.453 180.8 0.629022
-161.97 181.145 0.50055498
-162.839 181.879 0.629022
-160.935 181.282 0.50055498
-161.90601 182.162 0.629022
-159.89999 181.145 0.50055498
-159.964 182.162 0.629022
-160.935 182.257 0.629022
-158.935 180.746 0.50055498
-159.03101 181.879 0.629022
-158.106 180.11 0.50055498
-158.17101 181.41901 0.629022
-157.47099 179.282 0.50055498
-156.798 180.04601 0.629022
-157.41701 180.8 0.629022
-156.338 179.186 0.629022
-153.67 177.282 2.3856599
-153.80901 178.69901 2.3856599
-154.269 177.282 1.60483
-153.80901 175.864 2.3856599
-154.397 178.582 1.60483
-155.05 177.282 1.00567
-154.397 175.981 1.60483
-155.16299 178.42999 1.00567
-155.16299 176.133 1.00567
-154.22301 180.062 2.3856599
-154.776 179.83299 1.60483
-155.498 179.534 1.00567
-154.894 181.31799 2.3856599
-155.392 180.985 1.60483
-156.04201 180.55099 1.00567
-155.798 182.41901 2.3856599
-156.22099 181.995 1.60483
-156.77299 181.44299 1.00567
-156.899 183.32201 2.3856599
-157.23199 182.82401 1.60483
-157.66499 182.175 1.00567
-158.155 183.994 2.3856599
-158.384 183.44 1.60483
-158.683 182.71899 1.00567
-159.51801 184.407 2.3856599
-159.634 183.819 1.60483
-159.787 183.054 1.00567
-160.935 184.547 2.3856599
-160.935 183.94701 1.60483
-160.935 183.16701 1.00567
-162.35201 184.407 2.3856599
-162.235 183.819 1.60483
-162.08299 183.054 1.00567
-163.715 183.994 2.3856599
-163.48599 183.44 1.60483
-163.187 182.71899 1.00567
-164.97099 183.32201 2.3856599
-164.638 182.82401 1.60483
-164.20399 182.175 1.00567
-166.07201 182.41901 2.3856599
-165.64799 181.995 1.60483
-165.09599 181.44299 1.00567
-166.976 181.31799 2.3856599
-166.47701 180.985 1.60483
-165.828 180.55099 1.00567
-167.647 180.062 2.3856599
-167.093 179.83299 1.60483
-166.37199 179.534 1.00567
-168.06 178.69901 2.3856599
-167.47301 178.582 1.60483
-166.707 178.42999 1.00567
-168.2 177.282 2.3856599
-167.601 177.282 1.60483
-166.82001 177.282 1.00567
-168.06 175.864 2.3856599
-167.47301 175.981 1.60483
-166.707 176.133 1.00567
-167.647 174.50101 2.3856599
-167.093 174.731 1.60483
-166.37199 175.02901 1.00567
-166.976 173.245 2.3856599
-166.47701 173.578 1.60483
-165.828 174.01199 1.00567
-166.07201 172.144 2.3856599
-165.64799 172.56799 1.60483
-165.09599 173.12 1.00567
-164.97099 171.241 2.3856599
-164.638 171.739 1.60483
-164.20399 172.388 1.00567
-163.715 170.57001 2.3856599
-163.48599 171.123 1.60483
-163.187 171.84399 1.00567
-162.35201 170.15601 2.3856599
-162.235 170.744 1.60483
-162.08299 171.50999 1.00567
-160.935 170.01601 2.3856599
-160.935 170.616 1.60483
-160.935 171.396 1.00567
-159.51801 170.15601 2.3856599
-159.634 170.744 1.60483
-159.787 171.50999 1.00567
-158.155 170.57001 2.3856599
-158.384 171.123 1.60483
-158.683 171.84399 1.00567
-156.899 171.241 2.3856599
-157.23199 171.739 1.60483
-157.66499 172.388 1.00567
-155.798 172.144 2.3856599
-156.22099 172.56799 1.60483
-156.77299 173.12 1.00567
-154.894 173.245 2.3856599
-155.392 173.578 1.60483
-156.04201 174.01199 1.00567
-154.22301 174.50101 2.3856599
-154.776 174.731 1.60483
-155.498 175.02901 1.00567
-168.705 177.282 12.5566
-168.556 175.76601 12.5566
-168.556 178.798 12.5566
-168.114 174.308 12.5566
-167.396 172.965 12.5566
-166.429 171.787 12.5566
-165.252 170.821 12.5566
-163.908 170.103 12.5566
-162.451 169.661 12.5566
-160.935 169.511 12.5566
-159.41901 169.661 12.5566
-157.961 170.103 12.5566
-156.618 170.821 12.5566
-155.44099 171.787 12.5566
-154.474 172.965 12.5566
-153.756 174.308 12.5566
-153.314 175.76601 12.5566
-153.16499 177.282 12.5566
-153.314 178.798 12.5566
-153.756 180.255 12.5566
-154.474 181.59801 12.5566
-155.44099 182.776 12.5566
-156.618 183.742 12.5566
-157.961 184.46001 12.5566
-159.41901 184.90199 12.5566
-160.935 185.052 12.5566
-162.451 184.90199 12.5566
-163.908 184.46001 12.5566
-165.252 183.742 12.5566
-166.429 182.776 12.5566
-167.396 181.59801 12.5566
-168.114 180.255 12.5566
-168.521 178.791 14.4625
-168.67 177.282 14.4625
-168.08099 180.242 14.4625
-167.366 181.57899 14.4625
-166.40401 182.75101 14.4625
-165.23199 183.713 14.4625
-163.895 184.42799 14.4625
-162.444 184.868 14.4625
-160.935 185.01601 14.4625
-159.42599 184.868 14.4625
-157.97501 184.42799 14.4625
-156.638 183.713 14.4625
-155.466 182.75101 14.4625
-154.504 181.57899 14.4625
-153.789 180.242 14.4625
-153.349 178.791 14.4625
-153.2 177.282 14.4625
-153.349 175.77299 14.4625
-153.789 174.32201 14.4625
-154.504 172.98399 14.4625
-155.466 171.812 14.4625
-156.638 170.85001 14.4625
-157.97501 170.136 14.4625
-159.42599 169.69501 14.4625
-160.935 169.547 14.4625
-162.444 169.69501 14.4625
-163.895 170.136 14.4625
-165.23199 170.85001 14.4625
-166.40401 171.812 14.4625
-167.366 172.98399 14.4625
-168.08099 174.32201 14.4625
-168.521 175.77299 14.4625
-167.45799 177.282 23.795601
-167.30499 175.879 23.795601
-167.689 175.938 22.0338
-167.82201 177.282 22.0338
-167.689 178.625 22.0338
-167.30499 178.68401 23.795601
-166.855 174.543 23.795601
-167.297 174.646 22.0338
-166.12801 173.334 23.795601
-166.661 173.45599 22.0338
-165.158 172.31 23.795601
-165.80499 172.412 22.0338
-163.99001 171.51801 23.795601
-164.761 171.55499 22.0338
-162.67999 170.996 23.795601
-163.57001 170.91901 22.0338
-161.28799 170.76801 23.795601
-162.278 170.52699 22.0338
-159.88 170.84399 23.795601
-160.935 170.395 22.0338
-158.52 171.222 23.795601
-159.591 170.52699 22.0338
-157.274 171.882 23.795601
-158.299 170.91901 22.0338
-156.19901 172.79601 23.795601
-156.065 172.412 22.0338
-157.10899 171.55499 22.0338
-155.345 173.91901 23.795601
-155.209 173.45599 22.0338
-154.75301 175.19901 23.795601
-154.57201 174.646 22.0338
-154.45 176.576 23.795601
-154.17999 175.938 22.0338
-154.45 177.987 23.795601
-154.048 177.282 22.0338
-154.75301 179.364 23.795601
-154.17999 178.625 22.0338
-155.345 180.645 23.795601
-154.57201 179.91701 22.0338
-156.19901 181.76801 23.795601
-155.209 181.108 22.0338
-157.274 182.681 23.795601
-156.065 182.151 22.0338
-158.52 183.342 23.795601
-158.299 183.644 22.0338
-157.10899 183.008 22.0338
-159.88 183.71899 23.795601
-159.591 184.036 22.0338
-161.28799 183.795 23.795601
-160.935 184.168 22.0338
-162.67999 183.567 23.795601
-162.278 184.036 22.0338
-163.99001 183.045 23.795601
-163.57001 183.644 22.0338
-165.158 182.25301 23.795601
-164.761 183.008 22.0338
-166.12801 181.229 23.795601
-165.80499 182.151 22.0338
-166.855 180.021 23.795601
-166.661 181.108 22.0338
-167.297 179.91701 22.0338
-168.386 177.282 18.263901
-168.243 178.735 18.263901
-168.243 175.828 18.263901
-156.795 171.086 18.263901
-158.08299 170.397 18.263901
-159.481 184.59 18.263901
-158.08299 184.166 18.263901
-167.819 180.133 18.263901
-167.131 181.42101 18.263901
-166.20399 182.55099 18.263901
-165.075 183.47701 18.263901
-163.786 184.166 18.263901
-162.38901 184.59 18.263901
-160.935 184.733 18.263901
-156.795 183.47701 18.263901
-155.666 182.55099 18.263901
-154.739 181.42101 18.263901
-154.05099 180.133 18.263901
-153.62601 178.735 18.263901
-153.483 177.282 18.263901
-153.62601 175.828 18.263901
-154.05099 174.42999 18.263901
-154.739 173.142 18.263901
-155.666 172.01199 18.263901
-159.481 169.97301 18.263901
-160.935 169.83 18.263901
-162.38901 169.97301 18.263901
-163.786 170.397 18.263901
-165.075 171.086 18.263901
-166.20399 172.01199 18.263901
-167.131 173.142 18.263901
-167.819 174.42999 18.263901
-165.89999 177.282 30.7306
-165.744 176.047 30.7306
-165.744 178.51601 30.7306
-165.286 174.89 30.7306
-164.554 173.883 30.7306
-163.595 173.089 30.7306
-162.46899 172.55901 30.7306
-161.24699 172.326 30.7306
-160.005 172.40401 30.7306
-158.821 172.789 30.7306
-157.77 173.45599 30.7306
-156.918 174.36301 30.7306
-156.31799 175.45399 30.7306
-156.009 176.659 30.7306
-156.009 177.90401 30.7306
-156.31799 179.10899 30.7306
-156.918 180.2 30.7306
-157.77 181.10699 30.7306
-158.821 181.774 30.7306
-160.005 182.159 30.7306
-161.24699 182.237 30.7306
-162.46899 182.004 30.7306
-163.595 181.474 30.7306
-164.554 180.67999 30.7306
-165.286 179.673 30.7306
-165.8 178.435 30.729799
-165.935 177.282 30.729799
-165.8 176.12801 30.729799
-165.403 179.526 30.729799
-164.765 180.495 30.729799
-163.92101 181.29201 30.729799
-162.91499 181.873 30.729799
-161.80299 182.20599 30.729799
-160.644 182.27299 30.729799
-159.50101 182.07201 30.729799
-158.435 181.612 30.729799
-157.504 180.918 30.729799
-156.757 180.02901 30.729799
-156.23599 178.992 30.729799
-155.96899 177.862 30.729799
-156.23599 175.57201 30.729799
-155.96899 176.701 30.729799
-156.757 174.534 30.729799
-157.504 173.645 30.729799
-158.435 172.951 30.729799
-159.50101 172.492 30.729799
-160.644 172.28999 30.729799
-161.80299 172.35699 30.729799
-162.91499 172.69099 30.729799
-163.92101 173.271 30.729799
-164.765 174.06799 30.729799
-165.403 175.03799 30.729799
-165.151 176.282 31.114901
-165.26801 177.282 31.114901
-165.151 178.28101 31.114901
-164.80701 175.33701 31.114901
-164.254 174.496 31.114901
-163.522 173.806 31.114901
-162.651 173.30299 31.114901
-161.687 173.01401 31.114901
-160.683 172.95599 31.114901
-159.692 173.131 31.114901
-157.961 174.13 31.114901
-158.76801 173.52901 31.114901
-157.315 174.901 31.114901
-156.86301 175.8 31.114901
-156.631 176.77901 31.114901
-156.631 177.785 31.114901
-156.86301 178.76401 31.114901
-157.315 179.66299 31.114901
-157.961 180.433 31.114901
-159.692 181.43201 31.114901
-158.76801 181.034 31.114901
-160.683 181.60699 31.114901
-161.687 181.549 31.114901
-162.651 181.25999 31.114901
-163.522 180.757 31.114901
-164.254 180.067 31.114901
-164.80701 179.226 31.114901
-165.16499 177.282 31.5
-165.05099 176.306 31.5
-165.076 176.3 31.6994
-165.05099 178.257 31.5
-165.076 178.263 31.3006
-165.19099 177.282 31.6994
-165.19099 177.282 31.3006
-164.715 175.383 31.5
-164.73801 175.37199 31.6994
-165.076 176.3 31.3006
-164.175 174.563 31.5
-164.19501 174.54601 31.6994
-164.73801 175.37199 31.3006
-163.461 173.88901 31.5
-163.476 173.868 31.6994
-164.19501 174.54601 31.3006
-162.61 173.39799 31.5
-162.621 173.37399 31.6994
-163.476 173.868 31.3006
-161.66901 173.116 31.5
-161.674 173.09 31.6994
-162.621 173.37399 31.3006
-160.689 173.05901 31.5
-160.687 173.033 31.6994
-161.674 173.09 31.3006
-159.722 173.23 31.5
-159.714 173.20399 31.6994
-160.687 173.033 31.3006
-158.82001 173.618 31.5
-158.80701 173.59599 31.6994
-159.714 173.20399 31.3006
-158.032 174.205 31.5
-158.01401 174.186 31.6994
-158.80701 173.59599 31.3006
-157.401 174.957 31.5
-157.379 174.94299 31.6994
-158.01401 174.186 31.3006
-156.96001 175.83501 31.5
-156.936 175.826 31.6994
-157.379 174.94299 31.3006
-156.73399 176.78999 31.5
-156.70799 176.78799 31.6994
-156.936 175.826 31.3006
-156.73399 177.77299 31.5
-156.70799 177.776 31.6994
-156.70799 176.78799 31.3006
-156.96001 178.728 31.5
-156.936 178.737 31.6994
-156.70799 177.776 31.3006
-157.401 179.606 31.5
-157.379 179.62 31.6994
-156.936 178.737 31.3006
-158.032 180.358 31.5
-158.01401 180.377 31.6994
-157.379 179.62 31.3006
-158.82001 180.94501 31.5
-158.80701 180.967 31.6994
-158.01401 180.377 31.3006
-159.722 181.334 31.5
-159.714 181.35899 31.6994
-158.80701 180.967 31.3006
-160.689 181.504 31.5
-160.687 181.53 31.6994
-159.714 181.35899 31.3006
-161.66901 181.44701 31.5
-161.674 181.47301 31.6994
-160.687 181.53 31.3006
-162.61 181.16499 31.5
-162.621 181.189 31.6994
-161.674 181.47301 31.3006
-163.461 180.674 31.5
-163.476 180.69501 31.6994
-162.621 181.189 31.3006
-164.175 180 31.5
-164.19501 180.017 31.6994
-163.476 180.69501 31.3006
-164.715 179.17999 31.5
-164.73801 179.192 31.6994
-164.19501 180.017 31.3006
-165.076 178.263 31.6994
-164.73801 179.192 31.3006
-166.134 177.282 30.756001
-165.994 178.481 30.756001
-166.32001 177.282 30.833
-165.994 176.08299 30.756001
-166.175 178.52299 30.833
-166.48 177.282 30.9554
-166.175 176.03999 30.833
-166.33 178.56 30.9554
-166.60201 177.282 31.114901
-166.33 176.00301 30.9554
-166.44901 178.589 31.114901
-166.679 177.282 31.3006
-166.44901 175.97501 31.114901
-166.524 178.606 31.3006
-166.705 177.282 31.5
-166.524 175.957 31.3006
-166.55 178.612 31.5
-166.679 177.282 31.6994
-166.55 175.951 31.5
-166.524 178.606 31.6994
-166.60201 177.282 31.885099
-166.524 175.957 31.6994
-166.44901 178.589 31.885099
-166.48 177.282 32.044601
-166.44901 175.97501 31.885099
-166.33 178.56 32.044601
-166.32001 177.282 32.167
-166.33 176.00301 32.044601
-166.175 178.52299 32.167
-166.134 177.282 32.243999
-166.175 176.03999 32.167
-165.994 178.481 32.243999
-165.935 177.282 32.270199
-165.994 176.08299 32.243999
-165.8 178.435 32.270199
-165.73599 177.282 32.243999
-165.8 176.12801 32.270199
-165.606 178.38901 32.243999
-165.55 177.282 32.167
-165.606 176.174 32.243999
-165.425 178.34599 32.167
-165.39 177.282 32.044601
-165.425 176.217 32.167
-165.27 178.30901 32.044601
-165.26801 177.282 31.885099
-165.27 176.254 32.044601
-165.151 178.28101 31.885099
-165.151 176.282 31.885099
-155.771 177.88499 30.756001
-155.771 176.67799 30.756001
-165.58099 179.61501 30.756001
-165.74699 179.698 30.833
-165.89 179.77 30.9554
-165.99899 179.825 31.114901
-166.06799 179.85899 31.3006
-166.091 179.871 31.5
-166.06799 179.85899 31.6994
-165.99899 179.825 31.885099
-165.89 179.77 32.044601
-165.74699 179.698 32.167
-165.58099 179.61501 32.243999
-165.403 179.526 32.270199
-165.22501 179.436 32.243999
-165.05901 179.353 32.167
-164.916 179.28101 32.044601
-164.80701 179.226 31.885099
-164.918 180.62399 30.756001
-165.06 180.743 30.833
-165.18201 180.84599 30.9554
-165.276 180.924 31.114901
-165.33501 180.974 31.3006
-165.355 180.991 31.5
-165.33501 180.974 31.6994
-165.276 180.924 31.885099
-165.18201 180.84599 32.044601
-165.06 180.743 32.167
-164.918 180.62399 32.243999
-164.765 180.495 32.270199
-164.612 180.367 32.243999
-164.47 180.248 32.167
-164.34801 180.145 32.044601
-164.254 180.067 31.885099
-164.03999 181.452 30.756001
-164.151 181.601 30.833
-164.246 181.729 30.9554
-164.319 181.827 31.114901
-164.36501 181.88901 31.3006
-164.381 181.91 31.5
-164.36501 181.88901 31.6994
-164.319 181.827 31.885099
-164.246 181.729 32.044601
-164.151 181.601 32.167
-164.03999 181.452 32.243999
-163.92101 181.29201 32.270199
-163.802 181.132 32.243999
-163.69099 180.983 32.167
-163.595 180.855 32.044601
-163.522 180.757 31.885099
-162.994 182.056 30.756001
-163.06799 182.226 30.833
-163.131 182.373 30.9554
-163.17999 182.485 31.114901
-163.21001 182.556 31.3006
-163.22 182.58 31.5
-163.21001 182.556 31.6994
-163.17999 182.485 31.885099
-163.131 182.373 32.044601
-163.06799 182.226 32.167
-162.994 182.056 32.243999
-162.91499 181.873 32.270199
-162.836 181.69 32.243999
-162.763 181.519 32.167
-162.7 181.373 32.044601
-162.651 181.25999 31.885099
-161.838 182.40199 30.756001
-161.87 182.58501 30.833
-161.89799 182.742 30.9554
-161.91901 182.86301 31.114901
-161.93201 182.938 31.3006
-161.937 182.964 31.5
-161.93201 182.938 31.6994
-161.91901 182.86301 31.885099
-161.89799 182.742 32.044601
-161.87 182.58501 32.167
-161.838 182.40199 32.243999
-161.80299 182.20599 32.270199
-161.76801 182.009 32.243999
-161.73599 181.826 32.167
-161.70799 181.66901 32.044601
-161.687 181.549 31.885099
-160.633 182.472 30.756001
-160.62199 182.658 30.833
-160.61301 182.817 30.9554
-160.605 182.939 31.114901
-160.601 183.01601 31.3006
-160.599 183.04201 31.5
-160.601 183.01601 31.6994
-160.605 182.939 31.885099
-160.61301 182.817 32.044601
-160.62199 182.658 32.167
-160.633 182.472 32.243999
-160.644 182.27299 32.270199
-160.65601 182.07401 32.243999
-160.66701 181.88901 32.167
-160.67599 181.729 32.044601
-160.683 181.60699 31.885099
-159.444 182.26199 30.756001
-159.39 182.44 30.833
-159.345 182.593 30.9554
-159.31 182.71001 31.114901
-159.28799 182.784 31.3006
-159.28 182.80901 31.5
-159.28799 182.784 31.6994
-159.31 182.71001 31.885099
-159.345 182.593 32.044601
-159.39 182.44 32.167
-159.444 182.26199 32.243999
-159.50101 182.07201 32.270199
-159.558 181.881 32.243999
-159.61099 181.703 32.167
-159.657 181.55 32.044601
-159.692 181.43201 31.885099
-158.33501 181.784 30.756001
-158.242 181.94501 30.833
-158.16299 182.08299 30.9554
-158.101 182.189 31.114901
-158.063 182.256 31.3006
-158.05 182.27901 31.5
-158.063 182.256 31.6994
-158.101 182.189 31.885099
-158.16299 182.08299 32.044601
-158.242 181.94501 32.167
-158.33501 181.784 32.243999
-158.435 181.612 32.270199
-158.535 181.439 32.243999
-158.627 181.278 32.167
-158.707 181.14 32.044601
-158.76801 181.034 31.885099
-157.367 181.063 30.756001
-157.239 181.19901 30.833
-157.13 181.315 30.9554
-157.04601 181.40401 31.114901
-156.993 181.46001 31.3006
-156.97501 181.479 31.5
-156.993 181.46001 31.6994
-157.04601 181.40401 31.885099
-157.13 181.315 32.044601
-157.239 181.19901 32.167
-157.367 181.063 32.243999
-157.504 180.918 32.270199
-157.64101 180.77299 32.243999
-157.76801 180.638 32.167
-157.877 180.522 32.044601
-157.961 180.433 31.885099
-156.591 180.13901 30.756001
-156.436 180.241 30.833
-156.302 180.328 30.9554
-156.2 180.396 31.114901
-156.136 180.438 31.3006
-156.114 180.452 31.5
-156.136 180.438 31.6994
-156.2 180.396 31.885099
-156.302 180.328 32.044601
-156.436 180.241 32.167
-156.591 180.13901 32.243999
-156.757 180.02901 32.270199
-156.924 179.92 32.243999
-157.07899 179.81799 32.167
-157.21201 179.73 32.044601
-157.315 179.66299 31.885099
-156.049 179.06 30.756001
-155.87399 179.123 30.833
-155.72501 179.17799 30.9554
-155.61 179.22 31.114901
-155.537 179.246 31.3006
-155.513 179.255 31.5
-155.537 179.246 31.6994
-155.61 179.22 31.885099
-155.72501 179.17799 32.044601
-155.87399 179.123 32.167
-156.049 179.06 32.243999
-156.23599 178.992 32.270199
-156.424 178.923 32.243999
-156.59801 178.86 32.167
-156.748 178.80499 32.044601
-156.86301 178.76401 31.885099
-155.586 177.907 30.833
-155.42799 177.925 30.9554
-155.306 177.939 31.114901
-155.23 177.948 31.3006
-155.20399 177.952 31.5
-155.23 177.948 31.6994
-155.306 177.939 31.885099
-155.42799 177.925 32.044601
-155.586 177.907 32.167
-155.771 177.88499 32.243999
-155.96899 177.862 32.270199
-156.16701 177.839 32.243999
-156.351 177.817 32.167
-156.50999 177.799 32.044601
-156.631 177.785 31.885099
-155.586 176.65601 30.833
-155.42799 176.638 30.9554
-155.306 176.62399 31.114901
-155.23 176.61501 31.3006
-155.20399 176.612 31.5
-155.23 176.61501 31.6994
-155.306 176.62399 31.885099
-155.42799 176.638 32.044601
-155.586 176.65601 32.167
-155.771 176.67799 32.243999
-155.96899 176.701 32.270199
-156.16701 176.724 32.243999
-156.351 176.746 32.167
-156.50999 176.76401 32.044601
-156.631 176.77901 31.885099
-156.049 175.50301 30.756001
-156.591 174.424 30.756001
-155.87399 175.44 30.833
-156.436 174.32201 30.833
-155.72501 175.38499 30.9554
-156.302 174.235 30.9554
-155.61 175.343 31.114901
-156.2 174.16701 31.114901
-155.537 175.317 31.3006
-156.136 174.125 31.3006
-155.513 175.308 31.5
-156.114 174.11099 31.5
-155.537 175.317 31.6994
-156.136 174.125 31.6994
-155.61 175.343 31.885099
-156.2 174.16701 31.885099
-155.72501 175.38499 32.044601
-156.302 174.235 32.044601
-155.87399 175.44 32.167
-156.436 174.32201 32.167
-156.049 175.50301 32.243999
-156.591 174.424 32.243999
-156.23599 175.57201 32.270199
-156.757 174.534 32.270199
-156.424 175.64 32.243999
-156.924 174.644 32.243999
-156.59801 175.703 32.167
-157.07899 174.746 32.167
-156.748 175.758 32.044601
-157.21201 174.83299 32.044601
-156.86301 175.8 31.885099
-157.315 174.901 31.885099
-157.367 173.5 30.756001
-157.239 173.36501 30.833
-157.13 173.24899 30.9554
-157.04601 173.16 31.114901
-156.993 173.104 31.3006
-156.97501 173.08501 31.5
-156.993 173.104 31.6994
-157.04601 173.16 31.885099
-157.13 173.24899 32.044601
-157.239 173.36501 32.167
-157.367 173.5 32.243999
-157.504 173.645 32.270199
-157.64101 173.78999 32.243999
-157.76801 173.925 32.167
-157.877 174.041 32.044601
-157.961 174.13 31.885099
-158.33501 172.77901 30.756001
-158.242 172.618 30.833
-158.16299 172.48 30.9554
-158.101 172.37399 31.114901
-158.063 172.30701 31.3006
-158.05 172.284 31.5
-158.063 172.30701 31.6994
-158.101 172.37399 31.885099
-158.16299 172.48 32.044601
-158.242 172.618 32.167
-158.33501 172.77901 32.243999
-158.435 172.951 32.270199
-158.535 173.12399 32.243999
-158.627 173.285 32.167
-158.707 173.423 32.044601
-158.76801 173.52901 31.885099
-159.444 172.30099 30.756001
-159.39 172.123 30.833
-159.345 171.97 30.9554
-159.31 171.853 31.114901
-159.28799 171.77901 31.3006
-159.28 171.754 31.5
-159.28799 171.77901 31.6994
-159.31 171.853 31.885099
-159.345 171.97 32.044601
-159.39 172.123 32.167
-159.444 172.30099 32.243999
-159.50101 172.492 32.270199
-159.558 172.683 32.243999
-159.61099 172.86099 32.167
-159.657 173.013 32.044601
-159.692 173.131 31.885099
-160.633 172.091 30.756001
-160.62199 171.90601 30.833
-160.61301 171.746 30.9554
-160.605 171.62399 31.114901
-160.601 171.547 31.3006
-160.599 171.521 31.5
-160.601 171.547 31.6994
-160.605 171.62399 31.885099
-160.61301 171.746 32.044601
-160.62199 171.90601 32.167
-160.633 172.091 32.243999
-160.644 172.28999 32.270199
-160.65601 172.489 32.243999
