# .PCD v0.7 - Point Cloud Data file format
VERSION 0.7
FIELDS x y z
SIZE 4 4 4
TYPE F F F
COUNT 1 1 1
WIDTH 1722
HEIGHT 1
VIEWPOINT 0 0 0 1 0 0 0
POINTS 1722
DATA ascii
-0.681032 -1.65241 11.207
0.28271899 -0.60056698 11.3506
1.51289 -2.00052 10.7088
-1.24755 -2.65522 0.61656803
0.30026501 -0.61186701 11.3445
-0.74321997 -1.63849 11.2012
1.55855 -1.99819 10.6608
0.17123701 -0.59896398 11.3566
-1.0827 -2.6872499 0.38090399
0.200344 -0.61590099 11.3463
0.91948199 -2.23369 10.8357
-0.93760598 -1.51508 11.2033
-0.893727 -2.7711699 0.38737601
-0.185747 -0.61413503 11.3714
0.99594998 -2.2479601 10.781
-0.886329 -1.52272 11.2089
-1.37413 -2.52351 0.397847
-0.180023 -0.64141297 11.3614
0.865659 -2.33057 10.743
-0.76815999 -1.6119 11.2053
-1.2224801 -2.6396599 0.46307501
-0.116757 -0.654971 11.352
0.94639897 -2.3417599 10.6761
-0.45444199 -1.61455 11.2256
-1.97225 -2.0469799 0.59034801
-0.077321097 -0.66511601 11.3446
1.20232 -2.12199 10.8067
-0.66160798 -1.59473 11.2174
-1.9174401 -2.0987301 0.55521202
-0.064297803 -0.61043602 11.3669
1.37041 -2.0264699 10.7965
-0.70646501 -1.50344 11.2251
-1.95227 -2.0228801 0.47935501
-6.3842199e-05 -0.61373597 11.3617
-1.74365 -2.22299 0.38630599
-0.80855101 -1.4946001 11.2189
1.22101 -2.1545 10.7574
-0.058435 -0.66127002 11.345
1.37221 -2.12205 10.6724
-0.53104103 -1.66238 11.2156
-1.80511 -2.2277601 0.58622903
0.041988499 -0.63484102 11.349
2.1623399 -1.42475 10.5011
-0.63881898 -1.62704 11.2142
0.866166 -0.24620301 11.484
-1.66475 -2.3348801 0.51392502
2.10676 -1.50568 10.5164
-0.71234798 -1.58296 11.2154
0.867149 -0.168625 11.4893
-1.76371 -2.24242 0.49281001
-0.76579201 -1.57934 11.2116
0.84692699 -0.324857 11.4678
2.2927799 -1.2000999 10.486
-1.50319 -2.4474101 0.430978
0.875673 -0.35939801 11.47
-0.403824 -1.66377 11.2214
0.89313 -0.28001899 11.4916
2.3199899 -1.11248 10.5104
-0.775244 -2.8589399 0.61194801
0.91873997 -0.19740801 11.518
-0.212192 -1.72014 11.22
2.1947701 -1.30838 10.5884
-0.57251501 -2.9072499 0.63725001
0.90016598 -0.410676 11.4698
-0.46061799 -1.72961 11.2102
2.14483 -1.39341 10.5847
0.89886099 -0.29948601 11.4925
-0.71762103 -2.81598 0.34096
-0.219606 -1.75468 11.2151
2.39011 -0.89843702 10.5556
0.92644101 -0.61368501 11.4075
-0.634808 -2.8652699 0.46320701
-0.107617 -1.72411 11.2201
0.90953302 -0.57863498 11.4166
2.3095701 -1.08793 10.5639
-0.332773 -2.93346 0.55841398
0.0291791 -1.72229 11.2207
0.93892503 -0.57111502 11.4343
2.53547 -0.169397 10.4761
-0.111919 -2.9519501 0.60839999
-0.029926799 -1.80094 11.209
0.95044899 -0.54483402 11.4626
2.52069 -0.174238 10.5189
0.028944099 -1.79333 11.2104
0.864223 -0.47846001 11.4363
-0.37812999 -2.90802 0.44130799
0.89892799 -0.496517 11.4425
-0.35980001 -1.78418 11.2012
2.4984801 -0.360704 10.5399
-0.070737697 -2.9068501 0.362822
0.91391802 -0.47897401 11.4553
-0.312161 -1.79505 11.2014
2.4876699 -0.349549 10.5723
-0.63020998 -2.71453 0.116379
0.93341798 -0.47212401 11.4762
2.4679301 -0.667018 10.4939
0.96458399 -0.54398602 11.5126
-0.198101 -1.8262 11.1973
0.99735302 -0.62798899 11.4898
-0.558644 -2.7725699 0.17297199
2.43308 -0.80805302 10.4975
0.94819599 -0.45558399 11.5513
-0.20098101 -1.8156199 11.204
-0.42804199 -2.76337 0.122827
2.4446599 -0.71067399 10.5319
0.94402999 -0.44418299 11.5236
-0.33000299 -1.77662 11.2065
-0.178747 -2.81723 0.177986
0.95929301 -0.55190998 11.4779
2.45842 -0.57638502 10.5794
-0.74624902 -2.78175 0.27269199
-0.43895301 -1.73812 11.2096
0.99699801 -0.63754499 11.4693
2.4351499 -0.213328 10.7105
-0.69760001 -2.81287 0.320499
0.94701302 -0.48738399 11.4991
-0.18600699 -1.803 11.2073
2.4409101 -0.332596 10.6819
0.957699 -0.53428501 11.4957
-0.30410701 -2.84917 0.24999601
2.3515799 -0.76200497 10.7149
-0.0238786 -1.81317 11.2065
0.93330199 -0.20224699 11.5994
-0.195112 -2.86971 0.28336099
2.4254 -0.54993099 10.6674
0.93232203 -0.25661999 11.5792
0.43524599 -1.79758 11.188
2.4560499 -0.37558699 10.6449
0.310855 -2.79217 0.234063
0.92476302 -0.14921901 11.5384
0.40719101 -1.80272 11.1898
0.237436 -2.7516699 0.15166099
2.4908099 -0.230874 10.5883
0.91917002 -0.22938401 11.5168
0.59334499 -1.74736 11.1857
0.41718501 -2.83463 0.35846001
2.4126999 -0.62960202 10.6572
0.93365699 -0.28442401 11.597
0.932486 -0.30378699 11.5527
0.92794502 -0.334048 11.5236
0.92645103 -0.360962 11.51
1.02467 -0.74743599 11.3671
0.29772899 -2.83477 0.295917
1.0166 -0.713458 11.3917
0.157214 -2.8283401 0.226496
1.16641 -0.84603101 11.3399
0.43517601 -1.78511 11.1923
2.4256699 -0.67009997 10.6059
0.110702 -2.7765999 0.150107
1.09039 -0.79777598 11.3555
0.202971 -1.82524 11.1978
0.18105 -1.83442 11.1935
1.03741 -0.72957802 11.4
0.253571 -1.81397 11.1987
1.02091 -0.69375998 11.4241
0.22147501 -1.81872 11.1989
1.1604 -0.83622903 11.3669
2.0074501 -1.49064 10.7245
0.127225 -2.8662 0.302917
0.489274 -1.6406699 11.2105
1.10561 -0.78867298 11.4023
2.0659599 -1.40211 10.7167
1.3972 -0.87475699 11.3136
0.35608801 -1.7229 11.2091
-0.052676499 -2.8807299 0.30009601
2.1510999 -1.3042099 10.6752
1.3497 -0.893987 11.3065
0.21839701 -1.71968 11.2157
0.77986801 -2.8299601 0.59774601
2.2023599 -1.25904 10.6324
1.34389 -0.882222 11.3314
0.13509899 -1.73686 11.2161
0.486206 -2.8914499 0.57001799
1.34368 -0.87052 11.3634
2.20559 -1.11988 10.744
0.57018799 -1.7010601 11.1958
0.257523 -2.93364 0.60947901
1.24297 -0.87792897 11.3256
2.3211999 -0.926229 10.6798
0.50491798 -1.75466 11.1926
1.27082 -0.88254398 11.3368
0.028403901 -2.95017 0.58298999
1.2818 -0.88167697 11.3578
2.2539599 -1.16164 10.625
0.17649201 -1.7706701 11.2098
1.22175 -0.86050999 11.3808
0.57803899 -2.8531201 0.509857
2.2936299 -1.05243 10.6339
0.089788496 -1.78127 11.2113
1.31076 -0.859864 11.444
0.67646903 -1.65369 11.1905
-2.1041801 -0.353607 10.9404
0.38042301 -2.87064 0.418881
1.3559901 -0.84789097 11.4392
1.1838 -0.83047402 11.473
1.26609 -0.85816699 11.4509
1.35439 -0.85931897 11.3934
1.35972 -0.86153197 11.3791
1.1921099 -0.84244502 11.4287
-2.0873301 -0.224915 10.965
1.24734 -0.86727899 11.383
-2.1433499 -0.50829601 10.8918
1.04698 -0.69985503 11.5074
0.78175199 -1.60092 11.1844
-2.0673399 -0.53518701 10.953
0.83269 -1.65619 11.1703
-2.0129399 -0.34017399 11.0124
1.0779901 -0.74952501 11.4643
0.71406901 -1.66343 11.1844
-2.03634 -0.20208 11.0039
0.243837 -2.9019101 0.44039699
0.925098 -1.52709 11.1744
1.04514 -0.71124202 11.4533
1.04608 -0.72182298 11.4254
1.15116 -0.802347 11.4923
0.091177702 -2.8982999 0.376412
1.16143 -0.81728703 11.4589
-1.97804 -0.68711698 10.9935
1.09708 -0.778745 11.4179
1.3722 -2.4021599 0.179235
0.979698 -1.48288 11.1716
1.1781501 -0.837704 11.4228
-1.99507 -0.47450599 11.017
0.96864098 -1.57224 11.1618
1.4700201 -0.85095698 11.2823
1.35188 -2.4693799 0.253869
-1.8285201 -1.27002 10.9186
1.44995 -0.864245 11.2908
1.15061 -1.50184 11.1411
1.5952899 -2.28986 0.15702
1.60774 -0.61686498 11.279
-1.86412 -1.22268 10.9133
0.66191202 -1.7490799 11.1732
1.5928299 -2.3371799 0.21105701
1.57116 -0.67342401 11.291
1.46134 -0.81016701 11.3234
0.817352 -1.68805 11.1652
1.43277 -0.83223301 11.3387
1.54809 -0.67937702 11.3126
1.08094 -1.58024 11.1373
1.54047 -0.64769697 11.3478
1.15797 -1.53714 11.1325
1.68016 -0.286394 11.275
0.75687099 -1.70068 11.1723
-1.68242 -1.28984 11.0112
1.67185 -0.24432699 11.2868
0.70349503 -1.70578 11.1794
1.65144 -0.186288 11.318
1.36176 -2.49384 0.30048299
-1.72155 -1.2052701 11.0187
0.95628798 -1.61719 11.1573
1.6309 -0.34730399 11.3304
1.32155 -2.5094299 0.30220401
-1.98066 -0.98889798 10.9088
1.17664 -1.5229 11.1322
-1.98058 -0.87154001 10.9494
1.68273 -2.31107 0.25392699
1.65655 -0.454779 11.2733
-1.86639 -0.99090898 10.9969
1.62488 -1.2092201 11.072
1.5798 -2.41149 0.33063501
1.614 -0.524746 11.2995
-1.82451 -0.99706 11.0225
2.1835799 -1.76086 0.130612
1.5624 -1.26752 11.0795
1.6321501 -0.375866 11.3242
-1.63482 -1.03758 11.1132
1.68195 -1.1460299 11.067
2.0193501 -2.00948 0.187894
1.6030101 -0.50153601 11.3229
-1.62169 -1.12265 11.0962
1.61791 -1.2036901 11.0756
1.61156 -0.30662099 11.4451
2.1489601 -1.91184 0.256477
1.61499 -0.30334601 11.3958
-1.7676001 -0.801817 11.0985
1.45275 -1.36334 11.0925
1.57043 -0.52244002 11.4264
2.0554199 -2.0244801 0.26804501
-1.78249 -0.80582798 11.0906
1.26732 -1.4802901 11.1169
1.58114 -0.48161 11.4168
1.6215 -0.274041 11.3744
1.62565 -0.25201699 11.3643
1.57087 -0.54041702 11.3838
1.60636 -0.40706199 11.369
1.43674 -0.78680098 11.4406
1.45169 -0.77512598 11.4177
1.41697 -0.82335401 11.3914
1.47352 -0.77193099 11.3541
1.51921 -0.65268302 11.4482
1.51551 -0.67235702 11.4074
1.49457 -0.73095798 11.3813
1.54619 -0.62913102 11.3567
1.67829 -0.011914 11.2772
1.8892 -2.07149 0.139832
1.6704299 -0.083828703 11.291
1.62444 0.260914 11.2819
1.75905 -2.21924 0.18484101
1.66062 0.099565201 11.2835
-1.64992 -1.17542 11.0669
1.40324 -1.375 11.1057
1.64403 -0.027223499 11.3194
1.9997801 -2.0399201 0.202812
-1.55743 -1.31574 11.0704
1.6435699 -0.045426302 11.3227
1.2922601 -1.44183 11.1203
1.5943201 0.27845299 11.3092
-1.83173 -0.76980001 11.0721
1.81311 -2.21561 0.240769
1.53601 -1.14882 11.1111
1.62977 0.111599 11.3164
-1.76322 -0.993173 11.0593
2.2120099 -1.9717 0.60542703
1.40644 -1.23051 11.1282
1.4384 0.57170999 11.3004
-1.82591 -0.235267 11.126
2.2144599 -1.9443901 0.49469501
1.36562 -1.3009 11.1272
1.45296 0.53626001 11.3136
1.4690599 0.51253998 11.3165
1.50055 0.458359 11.337
1.5495 0.45706001 11.2798
1.60276 0.31702599 11.2863
1.53545 0.40282699 11.3209
1.56995 0.31923899 11.3242
1.4706399 0.45639801 11.4277
1.41732 0.51518601 11.4396
1.55843 0.274618 11.4348
1.48726 0.42975599 11.4478
1.49142 0.450326 11.3701
1.45522 0.49738601 11.359
1.55441 0.316726 11.3564
1.5023299 0.424876 11.3722
1.61844 -0.066605501 11.4395
1.61034 0.054739699 11.4096
1.61701 0.019797999 11.3797
-1.8453701 -0.412622 11.1086
1.62726 -0.029733799 11.3531
1.86737 -2.3006201 0.64629102
1.57397 0.21098299 11.4322
-1.90247 -0.203486 11.0877
1.23343 -1.39193 11.1402
1.5767699 0.204469 11.4176
2.0371301 -2.13765 0.51286697
1.59983 0.126304 11.3826
-1.9101599 -0.44129699 11.072
-1.81709 -0.56005001 11.1077
-1.75699 -0.70157999 11.1207
1.58122 0.238168 11.3496
-1.8587101 -0.59189397 11.082
1.31282 0.59870303 11.3302
-1.91743 -0.589203 11.0491
1.40718 0.57410097 11.3196
-1.53585 -1.68694 10.9027
1.2280101 0.57706898 11.3342
-1.5930099 -1.54039 10.9499
1.2527699 0.582699 11.3381
1.31558 0.59217602 11.3435
-1.2274899 -1.88817 10.9498
1.37844 0.57010698 11.3521
-1.30943 -1.82356 10.9463
1.22683 0.57402003 11.3487
-1.63858 -1.43261 10.9801
1.27285 0.58505899 11.3559
-1.5922199 -1.45156 10.9962
0.95905 0.39126199 11.3804
-1.22324 -1.78382 11.0129
1.05141 0.461501 11.3774
1.63203 -1.13378 11.086
2.2717199 -1.86903 0.461092
0.99485099 0.38220799 11.4118
-1.43147 -1.66889 10.9795
1.56356 -1.22615 11.0883
1.00899 0.38232401 11.4285
2.2679901 -1.83341 0.354895
-0.79839802 -2.18503 10.9028
1.12385 0.52090901 11.3512
1.41364 -1.31317 11.1151
1.89565 -2.23049 0.43232301
1.18598 0.56162202 11.3495
-0.72314799 -2.1330199 10.9724
1.31568 -1.3921 11.1228
1.15975 0.54161602 11.363
2.0609801 -2.08375 0.399831
-0.75214398 -2.1145799 10.9767
1.16844 0.54438502 11.3785
1.74429 -0.97419798 11.0747
1.09747 -2.72593 0.61507899
1.03297 0.38709801 11.5105
-0.85359198 -2.0217199 11.0095
1.83189 -0.89486998 11.0557
1.04017 0.40151399 11.4865
1.3286901 -2.6258299 0.60694999
-1.0635999 -2.06547 10.8927
1.12161 0.48434901 11.5008
1.74286 -1.05738 11.0601
1.27371 -2.6098399 0.474695
1.10997 0.48462501 11.458
-1.13367 -1.97279 10.9309
1.73586 -1.02104 11.0689
1.04959 0.425578 11.4404
1.30047 -2.5819199 0.42831099
-0.98266 -1.9787 10.9924
1.03207 0.410909 11.4245
1.94021 -0.70648903 11.034
1.5304199 -2.52263 0.63093001
1.14696 0.519499 11.4238
-0.91014802 -1.94551 11.0391
1.92353 -0.69043201 11.0458
1.10902 0.49583501 11.4059
1.7011499 -2.40518 0.54816902
-0.72232699 -1.8659 11.1236
1.38915 0.55145103 11.4077
1.86291 -0.89211398 11.0425
1.47602 -2.5048599 0.41055501
1.33482 0.56585002 11.4135
-0.55785799 -1.98463 11.0997
1.9387701 -0.72921199 11.0312
1.36914 0.56482399 11.3789
1.73975 -2.3345499 0.378629
-0.92925698 -1.74591 11.1275
1.3891 0.56346297 11.3619
1.82068 -1.0045 11.0378
2.4058599 -1.6900001 0.49815199
1.24339 0.55855203 11.448
-0.88173801 -1.8430099 11.0977
1.78494 -1.04003 11.0467
1.21943 0.55470097 11.4348
2.54426 -1.4848 0.60388702
-0.80737102 -1.93823 11.0699
1.25187 0.56954801 11.4074
1.957 -0.80018902 11.0122
2.33777 -1.7811199 0.44152501
1.19183 0.55354297 11.4026
1.99638 -0.71472102 11.0073
0.913495 0.264422 11.4256
-0.57271397 -2.0520999 11.0613
2.3993399 -1.6773 0.44319499
0.942469 0.36682001 11.3907
1.75293 -1.0626 11.0553
-1.07603 -1.80922 11.0561
2.6057501 -1.31359 0.54530603
0.86481303 0.124128 11.4545
1.8724101 -0.92007703 11.0341
-0.92546499 -1.8758 11.069
2.64029 -1.25655 0.62599403
0.90397799 0.244032 11.4315
1.91987 -0.84400499 11.0241
-1.41198 -1.37343 11.1103
0.93571699 0.247868 11.4501
2.526 -1.43364 0.40224299
1.9487 -0.76975501 11.021
-1.37345 -1.41178 11.1125
0.98009199 0.34551099 11.4286
2.62799 -1.19399 0.43335399
2.1147799 -0.32033399 10.9803
0.90983802 0.132541 11.4723
-1.50322 -1.37299 11.0727
2.2904899 -1.65014 0.165573
0.93920398 0.22584499 11.4625
2.1155 -0.32527801 10.9797
0.83764398 -0.103911 11.4797
2.3431101 -1.54877 0.15708899
-1.4275 -1.53153 11.046
2.12602 -0.14852899 10.9795
-1.2855 -1.5228 11.1075
0.87496001 -0.093819499 11.4894
2.47245 -1.17154 0.10419
2.1092 -0.33220199 10.9832
-1.13481 -1.64372 11.1104
0.898844 -0.092654698 11.5014
2.4793401 -1.30215 0.178351
2.0934501 -0.45474499 10.9845
0.90929401 -0.0373444 11.5065
-1.2839299 -1.57152 11.0887
2.35518 -1.59027 0.2013
2.03894 -0.63930202 10.9951
0.85394597 0.039376799 11.468
0.88896698 0.106671 11.4662
2.43874 -1.47157 0.22897699
0.90024602 0.0233131 11.4896
-1.11733 -1.74014 11.0768
2.55038 -1.2092 0.233688
0.90217102 0.097947501 11.4753
2.08427 -0.41455001 10.9927
-0.50700301 -2.2906599 10.8971
0.93337297 -0.0645772 11.6
2.57849 -1.16872 0.2615
2.0411 -0.58834898 10.9994
-0.52863199 -2.2375801 10.9393
0.93260801 -0.115689 11.5867
2.02672 -0.239583 11.0292
0.939816 0.0985424 11.5811
2.04774 -0.372866 11.0127
0.93205202 -0.0092810802 11.5673
2.6396401 -0.593808 0.22613899
2.01495 -0.41775301 11.0286
0.92241699 -0.027376199 11.5244
2.6121099 -0.737297 0.186315
2.72347 -0.71119601 0.36848199
0.92395198 -0.069709197 11.5315
2.6777401 -0.79762 0.28418401
0.93191701 0.114368 11.5113
2.6064601 -0.893695 0.192571
0.92702299 0.085416101 11.5053
2.5566001 -0.97233999 0.14768399
0.99437898 0.32140401 11.5124
2.6714699 -0.84818101 0.28767601
0.96507102 0.247926 11.5264
2.5809901 -1.12062 0.225454
0.98147202 0.31028599 11.4676
2.84656 -0.20843901 0.637721
0.969383 0.27300501 11.4855
2.79286 -0.65419 0.57409602
0.95673198 0.21089099 11.5348
2.7946 -0.70295697 0.63117802
0.94788599 0.160937 11.5486
2.7156799 -1.04969 0.62225997
0.94347602 0.153568 11.5185
2.7786 -0.63556099 0.51014203
0.94205701 0.173067 11.4986
-0.083951198 -2.36321 10.8907
2.7320399 -0.774158 0.400646
2.7091501 -0.928976 0.450389
0.93462402 -0.27168199 11.6332
2.66818 -1.0232 0.38143501
0.93529397 -0.162155 11.6541
-2.33655 0.88088399 0.159159
0.93816 -0.35374299 11.5998
-2.37801 0.932073 0.242158
0.93665802 -0.29767001 11.651
0.937177 -0.226895 11.7194
-2.4288299 0.71201402 0.14446101
0.93756598 -0.240531 11.7343
-2.4469099 0.80131501 0.21649601
1.93717 -0.63055599 11.0485
0.94082898 -0.359036 11.6583
-0.245747 -2.2814901 10.9541
-2.40207 0.91991103 0.25864699
0.93844402 -0.29600799 11.7104
2.0729301 -0.289074 11.0018
-0.30251601 -2.1909399 11.0155
1.0017 -0.61880797 11.5704
-2.4117501 1.0198801 0.382368
2.0755799 -0.35992801 10.9986
-0.54788202 -2.15432 11.0007
0.98400998 -0.57236099 11.5895
-2.5607901 0.64529502 0.304528
1.00465 -0.604756 11.6661
2.0118799 -0.55654597 11.0157
-0.089637101 -2.2305801 11.0014
1.00015 -0.58825397 11.696
2.0198801 -0.58708799 11.0094
-2.47001 0.84451801 0.291421
0.95230597 -0.466524 11.5813
-0.147762 -2.2187901 11.007
-1.33114 0.65432 11.219
-2.5935199 -0.051442102 0.101997
0.94470298 -0.40851301 11.6496
-1.35419 0.57487398 11.2219
0.95781398 -0.47348401 11.6563
0.73940003 -2.24245 10.9013
-2.58132 0.190357 0.116479
-1.38194 0.684946 11.2102
0.94560301 -0.403543 11.6917
0.55650097 -2.2615099 10.9262
-2.66664 -0.041265901 0.206387
0.98528397 -0.52310097 11.9243
-1.34153 0.67940003 11.216
0.5478 -2.2079699 10.9717
0.99357498 -0.54806298 11.866
-2.6555901 0.206706 0.236232
-1.35781 0.538194 11.2234
0.967013 -0.467089 11.9291
0.43055299 -2.2038 10.9964
-2.55054 0.29334301 0.110279
0.96904498 -0.482117 11.8947
-1.43409 0.41004699 11.2205
0.37386599 -2.3487599 10.8865
0.99995798 -0.56910002 11.8102
-2.56882 0.43793699 0.185849
-1.49426 0.43327999 11.2111
1.01243 -0.60969901 11.7375
0.236121 -2.3055699 10.9364
-2.65504 0.242836 0.253025
0.95219499 -0.41839299 11.7794
-1.41931 0.52936101 11.2162
0.270603 -2.2598901 10.973
0.96490997 -0.482611 11.7735
-2.6345501 0.46594799 0.340406
-1.39153 0.73179501 11.1993
0.94165498 -0.154764 11.935
0.0573254 -2.2557399 10.9908
-2.7472601 0.157436 0.546462
0.94084001 -0.21558499 11.8886
-1.4227099 0.67183602 11.2022
0.40282801 -2.0320101 11.1004
0.93854398 -0.160421 11.7798
-2.7560599 0.0217565 0.51628298
-1.4797699 0.57079399 11.199
0.93872201 -0.196839 11.7871
0.66241199 -1.95506 11.0996
-2.64605 0.63372701 0.61018598
0.94641 -0.33400899 11.9356
-1.55687 0.38460001 11.1989
0.28197101 -2.0111401 11.1213
0.94429499 -0.336146 11.8352
-2.7044899 0.40453801 0.58182502
-1.3023 0.82995498 11.2085
0.94222403 -0.30552199 11.8329
0.368112 -2.0590899 11.0917
-2.72489 0.122537 0.41703501
0.94560599 -0.388841 11.7531
-1.44314 0.62911201 11.2046
1.04522 -0.69231701 11.5317
-2.72702 -0.0022747701 0.37672099
0.597332 -2.0457699 11.0634
-1.46106 0.55806297 11.2077
1.05738 -0.69437999 11.5929
0.68571001 -2.0345299 11.0553
1.14693 -0.79524702 11.5094
-2.6510301 0.52483898 0.46578801
1.09951 -0.74909401 11.5582
0.096177198 -2.10163 11.0857
-1.53066 0.38577801 11.208
-2.7014 0.29150701 0.42068401
1.0466599 -0.67311102 11.63
0.212999 -2.1521499 11.049
1.03821 -0.65115798 11.6899
-1.6371 -0.13625 11.2027
-2.36655 1.23383 0.63075602
-0.44363901 -1.96343 11.1251
1.14161 -0.77532703 11.5793
-1.6323299 0.0046949899 11.1985
1.1231 -0.743388 11.669
1.33311 -0.84544897 11.478
1.3054 -0.84867197 11.4978
1.34027 -0.81709301 11.5918
1.3307 -0.81042802 11.6344
1.21263 -0.83543998 11.4867
1.1837 -0.80867898 11.5673
1.25256 -0.82057202 11.5982
-2.4354999 1.09191 0.569233
1.19367 -0.79948997 11.6232
-2.3568799 1.16172 0.46599001
1.3020101 -0.79211497 11.8054
-2.43485 0.98303401 0.38099101
1.37137 -0.77911901 11.7541
-2.5418401 0.906528 0.65520698
1.21119 -0.767398 11.8788
-2.6298201 0.69339001 0.62914902
1.28335 -0.78977001 11.8514
-0.50572902 -2.01583 11.0914
-2.5597899 0.78258902 0.471827
1.3096499 -0.79952198 11.7299
-1.60596 0.00115199 11.2086
-0.51834702 -2.06587 11.0615
1.37075 -0.78504002 11.7183
-2.58848 0.639346 0.36161199
-1.61418 -0.0054187402 11.2066
1.23717 -0.78952497 11.7424
-0.27785599 -2.1593001 11.0408
-1.05475 2.43858 0.51936102
1.26943 -0.81309497 11.654
-1.58755 0.22985201 11.2038
-0.116262 -2.03181 11.1185
1.01842 -0.60313803 11.8657
-1.01933 2.47192 0.63142699
-1.59065 0.251977 11.1986
1.08429 -0.68648702 11.8503
-0.17417701 -2.0819199 11.0909
-0.82179701 2.5207701 0.433128
1.02163 -0.61303902 11.804
-1.58132 0.19497199 11.2076
-0.209031 -2.1463399 11.0522
1.0459501 -0.65602601 11.7187
-1.0702699 2.39924 0.38334501
-1.57539 0.244479 11.2061
1.1158 -0.71079099 11.8717
-0.079027899 -2.16078 11.0487
-1.26402 2.33759 0.54921401
1.15159 -0.74048603 11.8312
-1.49698 -0.113995 11.2259
0.990403 -2.1423099 10.8939
1.14886 -0.74489701 11.7721
-1.55972 2.1585701 0.63070202
-1.5603 -0.090588003 11.2172
1.1535701 -0.76385498 11.6775
0.88389802 -2.1289201 10.9445
-1.26762 2.29914 0.40470201
1.4414001 -0.77363598 11.4726
-1.47974 0.16037101 11.2239
1.39192 -1.96315 10.8477
1.4619 -0.73682803 11.5286
-1.23894 2.3352699 0.46373999
-1.50793 0.242457 11.2176
1.50565 -0.67932498 11.4628
1.2293299 -1.9715 10.9232
1.50529 -0.67482603 11.4856
-1.55564 0.048858602 11.2162
-0.867432 2.35308 0.123866
1.04909 -2.00769 10.9727
1.47144 -0.708875 11.6126
-1.55936 0.092704803 11.2151
1.40818 -0.774279 11.6344
-0.99829 2.3134899 0.14534099
0.75449699 -2.13148 10.9821
1.4851201 -0.70608503 11.5354
-1.548 0.161531 11.2147
-1.12077 2.2457299 0.134093
1.1945601 -1.98114 10.9316
1.49352 -0.67911798 11.5776
-1.2003 2.2249 0.16919801
-0.84220201 2.46208 0.283571
-1.06336 2.3517799 0.251782
-1.3093899 2.19698 0.226201
-1.41829 2.1693599 0.31266499
1.61865 -0.188411 11.5107
-1.7405 1.80466 0.239408
1.60571 -0.343281 11.5064
-1.66479 1.8699 0.207403
-1.53123 0.344161 11.2105
1.6158299 -0.204578 11.5503
1.08507 -2.0456901 10.9371
-1.83732 1.7697901 0.33198899
1.61026 -0.251362 11.6012
-0.64414001 1.31127 11.217
1.9171799 -1.466 10.8335
1.5936199 -0.40757999 11.4964
-1.6855299 1.9033099 0.25860101
-0.65819901 1.2553 11.2232
1.89344 -1.46797 10.8515
1.5837801 -0.446143 11.5035
-1.5086499 2.0004599 0.176589
-0.50855601 1.40104 11.2123
1.90689 -1.3512501 10.9066
1.58845 -0.41240001 11.5714
-1.43801 2.05637 0.16765
-0.52823699 1.3649 11.2163
1.5961 -0.37212399 11.6227
1.7024699 -1.5683399 10.9239
-0.82573402 1.20775 11.2169
-1.65311 1.94726 0.267986
1.61149 -0.167704 11.8486
1.51764 -1.86676 10.8441
-0.83513999 1.1752501 11.2199
-1.5728199 1.99591 0.231015
1.61078 -0.179149 11.8353
1.53336 -1.78274 10.895
-0.90073299 1.2138 11.21
1.57915 -0.407823 11.8497
-2.1578 1.55729 0.63442397
1.60566 -1.65871 10.9289
1.59232 -0.36943901 11.7407
-0.90835398 1.18126 11.2137
-1.89475 1.8545901 0.62069499
1.60814 -0.23843899 11.7213
1.44414 -1.80134 10.9312
-1.6030999 2.1226599 0.63757199
1.61308 -0.18704399 11.706
-0.47434601 1.4625601 11.2009
1.673 -1.43099 10.9986
1.56501 -0.487223 11.6701
-1.5501601 2.1423299 0.52340001
1.59776 -0.354765 11.6958
-0.69044501 1.37607 11.1988
1.83883 -1.29825 10.9678
1.45188 -0.699812 11.8355
-1.83755 1.87553 0.49851501
-0.83231002 1.29526 11.1981
1.37472 -1.64818 11.0355
1.4318 -0.72558498 11.7916
-1.832 1.87192 0.47914901
-0.77803302 1.3202 11.2026
1.42248 -0.75050199 11.6841
1.58401 -1.53679 10.9983
-0.47116101 1.43946 11.2085
-1.62418 2.06235 0.46897399
1.46548 -0.70352399 11.6825
1.63661 -1.54039 10.9733
-0.64262599 1.36357 11.2095
-1.5538599 2.0941899 0.38544399
1.50902 -0.61034 11.8121
1.86856 -1.3041101 10.9499
1.50365 -0.62578499 11.7695
-0.718274 1.34791 11.2055
0.35467499 2.4442599 0.18814901
1.5013 -0.64514899 11.6704
1.5380599 -1.6104701 10.9848
-0.86625499 1.24699 11.2076
0.39786601 2.4481299 0.210861
1.51684 -0.61024898 11.685
1.533 -1.62683 10.9793
-1.20783 0.97110301 11.2031
1.61965 -0.096061602 11.4635
-0.057785202 2.4985099 0.145486
1.61759 -0.080452196 11.4813
-1.2792701 0.89816397 11.1988
0.71996999 -1.93231 11.0985
0.14530499 2.51841 0.203473
1.5786901 0.17621601 11.4844
0.90416002 -1.88104 11.0786
-1.22358 0.92220598 11.2087
1.56216 0.232577 11.5274
0.24920399 2.55795 0.301844
0.95091897 -1.9164799 11.0508
-1.17731 0.98726702 11.2069
1.60628 0.00251296 11.5998
0.284495 2.5778401 0.36017799
1.60369 0.025119299 11.6206
-1.1261899 1.06732 11.2002
0.85816699 -2.01965 11.0203
0.0821357 2.5448899 0.231032
1.55862 0.24392299 11.5405
-1.02513 1.15705 11.1984
1.08543 -1.83886 11.0489
1.60018 0.076167703 11.5408
0.063046798 2.58477 0.319166
1.19855 -1.78101 11.0385
-1.0409499 1.11166 11.2079
1.47416 0.44447401 11.4601
-0.73712599 2.43696 0.17047299
1.22798 -1.81575 11.0119
1.46745 0.43774199 11.5221
-1.1217099 1.06179 11.2043
-0.58027899 2.46296 0.15847901
1.3247 -1.74733 11.0123
1.40529 0.49556801 11.5779
-1.1677999 0.85182703 11.222
2.0687101 -1.27751 10.8041
-0.71542603 2.48316 0.246095
1.4595799 0.43622199 11.5695
-1.19875 0.850465 11.2189
1.99172 -1.3967299 10.8115
-0.563519 2.53705 0.29353401
1.4915299 0.413306 11.4743
-1.01195 1.02556 11.2211
2.2172401 -1.05344 10.764
-0.28301299 2.4628799 0.10277
1.55691 0.269568 11.4708
-0.91714299 1.14175 11.2174
1.54488 0.28020999 11.5425
-0.112544 2.50682 0.15036701
2.2503099 -0.92227101 10.7857
-1.1961 0.91288501 11.2133
1.51825 0.325378 11.6056
-0.32621101 2.5404601 0.218789
1.43074 0.427095 11.8454
-1.18686 0.92811501 11.2128
2.08428 -1.17915 10.843
1.4018 0.46476701 11.7782
-0.114527 2.56951 0.256704
-1.05575 1.06161 11.2131
1.94112 -1.32925 10.8898
1.5027 0.326859 11.8317
-0.566392 2.60482 0.57237202
-0.967318 1.1542701 11.211
2.2146499 -0.94328803 10.817
1.51483 0.30693999 11.7798
-0.745673 2.55617 0.511379
0.47634599 1.42246 11.2009
1.47366 0.403965 11.6585
2.12093 -1.07221 10.8607
-0.0239223 2.65084 0.52907199
0.37149799 1.37142 11.2159
-0.32525101 2.6311901 0.50515097
1.41976 0.46614301 11.6408
2.4168401 -0.244039 10.7359
0.56820202 1.43169 11.192
1.50598 0.33383 11.7103
-0.47352299 2.59407 0.41306099
2.3947599 -0.45237601 10.7468
0.545322 1.41427 11.1967
1.48646 0.37586099 11.7054
-0.73445702 2.5234001 0.36152199
2.37448 -0.350261 10.7868
1.60583 -0.057836901 11.8272
0.184265 1.4521199 11.2132
2.35882 -0.229022 10.8178
-0.25854799 2.6285999 0.474473
1.59828 0.032595899 11.8058
0.149767 1.4099 11.2203
1.61384 -0.117171 11.7084
-0.31820199 2.5943601 0.35068899
2.3931501 -0.52975202 10.7324
0.28860599 1.4790699 11.2054
1.6100399 -0.0535197 11.6369
0.52149498 2.60063 0.619923
2.32464 -0.78027397 10.7513
0.177773 1.47372 11.2102
1.59234 0.069984898 11.7873
0.41774699 2.6198699 0.59487998
0.41464099 1.51395 11.1851
2.3192101 -0.61576498 10.8064
1.55171 0.23144899 11.7463
0.55487299 2.5605199 0.49772799
0.34618101 1.52583 11.1901
1.59842 0.065048903 11.6454
2.2943201 -0.688465 10.8169
0.36557099 2.5759699 0.406477
0.277612 1.53315 11.1912
1.58082 0.132467 11.6542
2.2809 -0.39081001 10.8903
0.28606299 2.6280301 0.55106097
0.241558 1.52801 11.1971
1.31304 0.55854601 11.4722
2.2855301 -0.17128401 10.9016
0.175227 2.63517 0.53602803
0.45806 1.4899 11.1903
1.34734 0.53065401 11.5465
0.373225 1.49392 11.1978
2.2093699 -0.65035802 10.9104
1.20012 0.52608401 11.5373
0.28292999 2.6152101 0.48542699
0.18289 1.53002 11.1992
1.27125 0.54545099 11.5365
2.2662499 -0.50630498 10.888
1.29456 0.53864002 11.5785
-0.00519684 2.62537 0.42761099
0.211606 1.51442 11.2019
1.38651 0.50649899 11.6074
2.31882 -0.36417601 10.8527
2.2804401 1.5906 0.56053197
-0.36071 1.48949 11.2014
1.19338 0.51377398 11.5834
2.3529301 -0.191953 10.8283
2.2196901 1.66145 0.57116503
-0.31784901 1.50438 11.1985
2.2602301 1.54936 0.35827401
2.25841 -0.61302298 10.8728
1.27391 0.52542597 11.6299
-0.400484 1.46143 11.2076
1.03574 0.38736999 11.5257
2.10092 1.75064 0.41602701
2.3119299 -0.52974099 10.8367
1.0690399 0.427735 11.5383
-0.421572 1.47017 11.2042
1.93966 1.92393 0.51810598
1.87106 -1.23711 10.9715
1.02288 0.34242699 11.6664
-0.175993 1.52742 11.2012
1.81215 2.0410099 0.59206301
1.98943 -1.09304 10.9485
1.07076 0.409394 11.6335
-0.140241 1.5356801 11.1974
1.1185499 0.47205299 11.5461
1.1486 0.49425301 11.5457
1.1134 0.45035601 11.6303
2.03404 -1.08188 10.9237
-0.146488 1.50516 11.2087
1.16872 0.49216101 11.6224
-0.071040697 1.52562 11.2043
2.0218201 1.81802 0.387721
2.0405099 -1.09012 10.916
1.07208 0.379742 11.8265
-0.42720899 1.34706 11.2236
1.82494 1.97842 0.380822
1.0643899 0.37261099 11.8005
2.0820799 -0.95776999 10.9296
2.1873 1.43894 0.109297
-0.26636401 1.39819 11.222
1.13574 0.43072599 11.8762
-0.190918 1.4495 11.2173
1.15574 0.45275101 11.7986
2.11678 -0.89989603 10.9199
1.01756 0.313831 11.8046
1.05432 0.37418801 11.7103
1.1815799 0.488354 11.6881
1.1445301 0.45978799 11.6995
1.3555599 0.479963 11.8478
1.31973 0.49550101 11.7834
1.3662 0.49267 11.7145
1.33732 0.50392002 11.6933
1.2578501 0.49089301 11.8293
1.23727 0.490493 11.7755
1.23782 0.49272901 11.7597
1.26913 0.51679498 11.6669
0.994165 0.31184399 11.5499
1.00615 0.33017501 11.5923
0.95537502 0.190207 11.5755
0.95054698 0.14656501 11.6408
0.99280697 0.28911901 11.6378
0.984433 0.25755101 11.6984
0.94737601 0.112442 11.7196
0.95477903 0.15043899 11.7154
0.934793 -0.118875 11.64
0.93468702 -0.072007298 11.6362
0.93766898 -0.143034 11.7416
0.93766201 -0.119248 11.7407
0.93696398 0.039366301 11.602
0.940521 0.096373901 11.601
0.94029701 0.0517947 11.6685
0.94242197 0.063150696 11.7142
0.94125402 -0.045250699 11.9096
0.94118601 -0.142478 11.9104
0.94873899 0.076903097 11.9281
0.942339 0.0059589399 11.8548
0.93866301 -0.057764102 11.7826
0.93901002 -0.115342 11.8003
0.94354397 0.037573598 11.8178
0.94002801 -0.0124475 11.8076
0.98286301 0.224143 11.9186
0.97216398 0.204082 11.8755
1.0023 0.28223401 11.7991
1.00111 0.292413 11.7201
0.96567303 0.175181 11.873
0.95690799 0.129375 11.8943
0.96456999 0.18398701 11.7899
0.95240003 0.134386 11.733
0.96301901 -0.26166099 12.367
0.96763903 -0.155054 12.394
0.96303201 -0.31239399 12.3517
0.971313 -0.31612501 12.394
0.97479898 -0.223169 12.4122
0.97248697 -0.184205 12.4069
0.981076 -0.38191101 12.4076
0.98195302 -0.29475299 12.4252
1.02526 -0.58645499 12.357
0.99647403 -0.50734901 12.3782
1.03987 -0.59344202 12.405
1.01501 -0.51827902 12.4207
0.995134 -0.49953201 12.38
0.97920901 -0.41811499 12.3806
1.00176 -0.478259 12.4143
0.98440301 -0.40100801 12.4094
1.04768 -0.51782799 12.4449
1.06326 -0.58740801 12.4376
1.0190901 -0.38826999 12.4483
1.02389 -0.49216399 12.4409
1.02966 -0.51655298 12.4384
1.03863 -0.55944198 12.4283
1.00332 -0.42814901 12.4335
1.0068001 -0.44521499 12.4334
1.00477 -0.187148 12.4475
1.00489 -0.238942 12.4474
0.98908699 -0.173158 12.4372
0.99310899 -0.25519001 12.4409
1.01375 -0.35017201 12.4478
1.0115499 -0.384188 12.446
0.995857 -0.342347 12.438
0.99643499 -0.35157999 12.4378
1.04454 -0.628694 12.336
1.03511 -0.61611599 12.3354
1.1859 -0.77472901 12.3085
1.11643 -0.71618301 12.3568
1.08193 -0.66577798 12.3887
1.04538 -0.61777002 12.3886
1.13412 -0.72810501 12.3728
1.15924 -0.73811698 12.4005
1.3548501 -0.78928101 12.3207
1.34076 -0.79331303 12.3208
1.3275501 -0.795614 12.3475
1.3478 -0.78246498 12.373
1.24789 -0.79615802 12.3118
1.2128201 -0.78536701 12.3198
1.26178 -0.79330403 12.3732
1.2683001 -0.79264802 12.383
1.32283 -0.762766 12.4049
1.33709 -0.76577097 12.3993
1.2632101 -0.76635498 12.4113
1.2739 -0.77097499 12.409
1.3344899 -0.77258998 12.3963
1.33647 -0.77789998 12.3874
1.23511 -0.77204698 12.405
1.25302 -0.780137 12.3984
1.08302 -0.61495602 12.4371
1.10787 -0.666273 12.4284
1.05805 -0.61464 12.4208
1.09275 -0.66577703 12.4138
1.13574 -0.69670302 12.4263
1.20385 -0.75519001 12.4153
1.1300499 -0.70827901 12.4126
1.17901 -0.74735498 12.4065
1.40803 -0.75527 12.2898
1.4079 -0.751782 12.3297
1.5198801 -0.57268798 12.2767
1.48199 -0.651187 12.3053
1.41901 -0.73794699 12.3361
1.40037 -0.74883699 12.3693
1.4919 -0.62248898 12.3325
1.4880199 -0.620148 12.352
1.58798 -0.259615 12.2834
1.58794 -0.225958 12.3078
1.58935 -0.17548101 12.3301
1.5711401 -0.32204199 12.3574
1.57695 -0.34977099 12.3146
1.55879 -0.42282099 12.3201
1.55121 -0.43226799 12.3472
1.53258 -0.50458902 12.3543
1.55794 -0.33116201 12.3843
1.56282 -0.21034899 12.3884
1.5175 -0.46894899 12.3922
1.55504 -0.34842801 12.3845
1.56427 -0.33474299 12.3725
1.57345 -0.22796001 12.3715
1.53486 -0.464661 12.3733
1.5510401 -0.399571 12.3715
1.37739 -0.73731101 12.4008
1.44099 -0.667795 12.3922
1.44317 -0.67934901 12.3854
1.40833 -0.73279101 12.3766
1.47699 -0.59255999 12.3908
1.49957 -0.53408802 12.3914
1.50218 -0.553536 12.3839
1.49765 -0.57644802 12.3752
1.5803601 0.053953499 12.2862
1.5905401 -0.0898422 12.3011
1.54141 0.211744 12.2981
1.56225 0.116889 12.3156
1.5736099 0.027173501 12.3468
1.58481 -0.13204999 12.3547
1.53809 0.187344 12.3545
1.55564 0.112797 12.3545
1.42948 0.436474 12.2932
1.40941 0.45745599 12.3196
1.41034 0.45151699 12.3445
1.43603 0.416931 12.354
1.47093 0.38635999 12.2855
1.5336 0.24818499 12.2761
1.48558 0.33780599 12.342
1.49659 0.30761501 12.3507
1.42805 0.381708 12.3963
1.3837 0.44441199 12.3968
1.50985 0.227909 12.3878
1.4632601 0.332508 12.391
1.43328 0.40637499 12.3776
1.3799599 0.46660799 12.3863
1.4874099 0.298033 12.3817
1.47254 0.34568301 12.3728
1.54977 0.017577 12.3923
1.55152 0.0231821 12.3905
1.57552 -0.146991 12.3806
1.56119 0.0316329 12.3802
1.52054 0.156013 12.3932
1.5546499 0.061743099 12.3835
1.53219 0.167293 12.3799
1.55932 0.0859299 12.3645
1.33576 0.50193799 12.3026
1.3771501 0.489916 12.3047
1.2122999 0.490338 12.3379
1.24879 0.50091201 12.3448
1.29618 0.51064998 12.3513
1.37596 0.48571599 12.3489
1.23789 0.49489099 12.3653
1.25354 0.49452901 12.3836
1.08375 0.387725 12.3285
1.04901 0.33110601 12.3824
1.05791 0.33258101 12.4025
1.10274 0.38886601 12.4091
1.10672 0.41669801 12.3333
1.1234699 0.426624 12.3646
1.14917 0.44628 12.3698
1.13982 0.42843601 12.4025
1.11452 0.37306899 12.4301
1.07257 0.31775299 12.4349
1.15413 0.40860501 12.4276
1.16573 0.42301601 12.4238
1.11279 0.392432 12.4171
1.10418 0.384891 12.4142
1.18388 0.451756 12.4123
1.14301 0.41865 12.4177
1.36827 0.45451099 12.3992
1.35298 0.469791 12.3961
1.33714 0.47842601 12.3951
1.3033 0.49968499 12.3838
1.2311 0.459692 12.4174
1.27881 0.487645 12.4036
1.25772 0.482853 12.4046
1.20699 0.46943101 12.4093
1.0086499 0.246316 12.369
1.03326 0.314217 12.3498
0.97989798 0.15571 12.3497
0.98427898 0.145897 12.3844
1.01579 0.24742199 12.398
1.04908 0.31543499 12.4116
0.98630399 0.102108 12.4164
1.00923 0.20689499 12.4216
0.96324301 -0.10926 12.3701
0.96338898 -0.025448 12.3688
0.97129601 -0.077570803 12.4036
0.978818 -0.086064003 12.4226
0.96656501 0.089549698 12.3439
0.97545302 0.0918286 12.3904
0.97127801 -0.0231106 12.4028
0.98053902 0.033172101 12.4159
1.00728 -0.030703699 12.4482
0.99683201 -0.0456702 12.4447
1.01429 0.062623098 12.4478
1.00441 0.067573503 12.4443
0.99010497 -0.047012199 12.4378
0.98441601 -0.10352 12.4321
0.99655098 0.081694297 12.4359
0.98425198 -0.0149676 12.4306
1.06234 0.288367 12.4381
1.04461 0.223435 12.4438
1.03968 0.259305 12.4318
1.0139101 0.216544 12.4246
1.04017 0.202701 12.4461
1.00753 0.10314 12.4437
1.01296 0.185645 12.432
1.00437 0.174631 12.4252
1.01668 -0.23688801 12.4502
1.02158 -0.165719 12.4504
1.01601 -0.28828201 12.45
1.02745 -0.27997699 12.4504
1.03064 -0.167658 12.4502
1.04092 -0.188033 12.4464
1.0414799 -0.32748899 12.4475
1.04213 -0.27549601 12.4464
1.0779901 -0.57902801 12.4422
1.06278 -0.53570402 12.4445
1.0991499 -0.57326198 12.4383
1.06185 -0.490376 12.4455
1.05124 -0.47821701 12.4474
1.0333 -0.41297701 12.4487
1.05718 -0.475748 12.4466
1.05015 -0.390095 12.4456
1.10654 -0.51577002 12.4055
1.08916 -0.48673299 12.4248
1.0825 -0.409244 12.4101
1.08726 -0.45399699 12.4151
1.08639 -0.50836301 12.4344
1.08549 -0.51656401 12.4376
1.06766 -0.405184 12.4345
1.07206 -0.439863 12.4352
1.07226 -0.238552 12.4042
1.06563 -0.215728 12.4191
1.05371 -0.16188601 12.4366
1.0509599 -0.206236 12.4399
1.07374 -0.31540799 12.4094
1.06696 -0.333305 12.4278
1.05861 -0.29885599 12.4348
1.05428 -0.360762 12.4429
1.13727 -0.68495202 12.4317
1.1249 -0.63940799 12.4371
1.20913 -0.74222398 12.4216
1.17108 -0.69467801 12.4299
1.14056 -0.65713698 12.434
1.13319 -0.63477999 12.4336
1.18088 -0.69646603 12.4279
1.16757 -0.67128003 12.4273
1.35502 -0.735286 12.4055
1.30662 -0.75806499 12.4098
1.30173 -0.74811703 12.4125
1.31624 -0.73156399 12.409
1.27398 -0.75871098 12.4136
1.23562 -0.742643 12.4198
1.26256 -0.735901 12.416
1.24401 -0.727108 12.4176
1.33175 -0.68442398 12.3755
1.3372999 -0.69475597 12.3917
1.26841 -0.70072198 12.3806
1.24183 -0.70548397 12.4035
1.32918 -0.704319 12.3973
1.32006 -0.71645898 12.4036
1.23892 -0.707959 12.4069
1.27845 -0.72601402 12.4085
1.14223 -0.603185 12.4048
1.14894 -0.62314498 12.4156
1.1515 -0.63333201 12.4194
1.1498899 -0.63446498 12.4215
1.2001899 -0.67291898 12.3958
1.19612 -0.67463303 12.4057
1.1655 -0.661879 12.4227
1.21367 -0.69937801 12.413
1.4334199 -0.66211599 12.3975
1.37542 -0.72603101 12.4031
1.4898601 -0.522403 12.3971
1.47412 -0.55805999 12.3979
1.4133199 -0.66077 12.4018
1.3873301 -0.68419498 12.4024
1.48303 -0.49958199 12.3972
1.45006 -0.565938 12.3976
1.5579799 -0.19230001 12.3932
1.54502 -0.333767 12.3937
1.53605 -0.171175 12.3963
1.53421 -0.195288 12.3963
1.54269 -0.35274899 12.393
1.51684 -0.411439 12.3974
1.51433 -0.38121799 12.3969
1.5000499 -0.432549 12.3968
1.50493 -0.25078699 12.3744
1.51371 -0.210454 12.3831
1.46439 -0.45475399 12.3697
1.48695 -0.36032501 12.3711
1.51937 -0.18797299 12.387
1.52025 -0.14950199 12.3854
1.4895101 -0.40235999 12.3872
1.5150599 -0.326897 12.3927
1.38414 -0.62311703 12.3667
1.4118201 -0.59550703 12.3749
1.36638 -0.69333303 12.3993
1.39384 -0.65339297 12.3965
1.45025 -0.48453599 12.3644
1.46128 -0.474352 12.3737
1.43464 -0.58623999 12.3936
1.46514 -0.514422 12.3933
1.54846 -0.0200816 12.3942
1.55277 -0.084194399 12.3946
1.51937 0.14979 12.3941
1.53311 0.065397002 12.3958
1.52835 -0.00037963301 12.3966
1.54743 -0.146681 12.3976
1.5053101 0.15996701 12.3981
1.507 0.087596104 12.396
1.37925 0.42001799 12.404
1.3914599 0.40041399 12.4037
1.39081 0.39266601 12.4029
1.3829 0.384792 12.4014
1.4735399 0.27491599 12.3969
1.47079 0.267984 12.3985
1.4371001 0.330028 12.3998
1.4757299 0.210107 12.3967
1.39221 0.321125 12.3692
1.36321 0.37945399 12.3865
1.44584 0.200974 12.3642
1.42952 0.276696 12.3846
1.40943 0.333855 12.3934
1.41043 0.340617 12.3966
2.0153699 1.68662 0.157335
1.47965 0.19124199 12.3944
2.13078 -0.92170602 10.902
-0.052385502 1.4439501 11.2184
1.4294699 0.29642099 12.3913
1.49707 -0.0154623 12.3657
1.50819 -0.049426701 12.3788
1.52943 -0.123428 12.3934
1.52517 -0.0301343 12.3958
1.4931099 0.034483299 12.3694
1.49842 0.0489887 12.3822
1.50597 0.047311202 12.3887
1.4916199 0.122677 12.391
1.3595099 0.45122799 12.4029
1.3509001 0.44217801 12.4061
1.251 0.45577699 12.4172
1.28391 0.45813701 12.4142
1.30922 0.44300401 12.4101
1.3443 0.42952001 12.4064
1.24559 0.43851101 12.4183
1.2812099 0.43935901 12.412
1.1116 0.338305 12.4374
1.0993 0.308893 12.4407
1.13467 0.35266399 12.4347
1.13288 0.342217 12.434
1.17542 0.41450199 12.4275
1.19815 0.43678999 12.4236
1.1968 0.41942799 12.4262
1.20758 0.411295 12.4216
1.1561199 0.33142099 12.403
1.1428 0.31011099 12.406
1.22487 0.39569101 12.3843
1.19127 0.37739399 12.4084
1.1295 0.30303001 12.4225
1.1128401 0.28708601 12.4299
1.1919301 0.384767 12.415
1.1725 0.37082401 12.4197
1.3168401 0.395832 12.374
1.29031 0.41623199 12.3877
1.32724 0.410344 12.3966
1.93106 1.75302 0.150313
1.3315099 0.422227 12.4051
1.27845 0.41227499 12.3851
1.8117599 1.8537199 0.154026
-0.25184101 1.44688 11.216
1.23241 0.406232 12.3991
2.1847601 -0.84102601 10.8825
2.23913 1.53794 0.292115
1.29048 0.43528399 12.4072
-0.263289 1.47206 11.2118
-2.74704 -0.27244499 9.2413998
1.26138 0.42718899 12.4101
2.06793 1.71143 0.26016799
0.0160708 1.47701 11.2139
-2.7305901 -0.48823699 9.2572403
1.04772 0.20271701 12.4465
1.93314 1.82033 0.237791
-2.74331 -0.250642 9.21873
-0.098746501 1.49089 11.2113
1.0776 0.28493699 12.4421
-2.71716 -0.52859002 9.2064304
1.03386 0.142326 12.4479
1.8117 1.9428101 0.27931499
1.46899 0.95189101 11.1134
1.05309 0.192146 12.4472
-2.69575 -0.706824 9.2881899
1.08119 0.261338 12.4435
1.3521301 2.14835 0.221817
1.52398 0.87125802 11.1153
-2.6921 -0.72562599 9.3006001
1.08806 0.24111301 12.4394
1.59285 0.90888798 11.0841
1.32085 2.11642 0.170987
-2.6914799 -0.67401701 9.20788
1.0532 0.149489 12.4467
1.06563 0.161431 12.4427
1.0173399 -0.059821401 12.4502
1.02349 -0.074152403 12.4504
1.04407 -0.133219 12.4451
1.0402499 -0.041457601 12.4469
1.02156 -0.0112044 12.4502
1.02967 0.020174799 12.4501
1.03959 0.049093802 12.4485
1.05296 0.066549897 12.4439
1.07037 -0.12864 12.4066
1.06997 -0.138203 12.4072
1.07078 0.069789499 12.4234
1.06932 0.057656001 12.425
1.05958 -0.0888687 12.431
1.05688 -0.12650201 12.4333
1.06612 0.048960298 12.4299
1.05349 -0.0078278501 12.4392
1.11647 0.25893199 12.4092
1.1037101 0.226868 12.4162
1.1021 0.253896 12.4304
1.07888 0.20247801 12.4385
1.08367 0.120664 12.4097
1.0778199 0.115578 12.4213
1.0796 0.169159 12.4311
1.06546 0.109884 12.4366
1.07306 -0.22233599 12.3976
1.07447 -0.17059501 12.3835
1.0809799 -0.35373199 12.3878
1.0783 -0.268013 12.3676
1.07723 -0.174247 12.3651
1.08262 -0.157006 12.333
1.08135 -0.29804 12.3608
1.08257 -0.28830501 12.3497
1.0975699 -0.47950399 12.4005
1.09886 -0.479927 12.393
1.12628 -0.55114198 12.3564
1.4935499 0.97077698 11.1023
1.12857 -0.54383898 12.3252
-2.6958301 -0.68090999 9.2282
1.08538 -0.40153599 12.3968
1.2549 2.2886901 0.38641101
1.46884 2.1547799 0.287848
1.0912 -0.409527 12.3662
1.64231 2.0002799 0.19380701
1.72859 1.92738 0.165117
1.10277 -0.46673399 12.348
1.60474 2.1056001 0.336952
1.09475 -0.391819 12.3261
1.72873 1.99507 0.26529899
1.14288 -0.480609 12.2566
1.14086 2.4094901 0.60132599
1.1465 -0.533746 12.2728
1.33034 2.3118701 0.52955699
1.12116 -0.38361299 12.265
1.5568 2.2074699 0.59882402
1.11415 -0.40555799 12.278
1.65494 2.13116 0.50989199
1.2452101 2.33902 0.50671297
1.1269799 -0.506405 12.2955
1.39721 2.2588 0.45519
1.1114399 -0.48276901 12.3204
1.5365601 2.191 0.46918601
1.0988899 -0.39243001 12.3124
1.59786 2.1348 0.40196601
1.10919 -0.45761999 12.3104
2.5802801 0.50540203 0.141197
2.6329401 0.43404999 0.21427301
1.12677 -0.20375399 12.252
2.5724101 0.609182 0.150196
1.11966 -0.256089 12.26
2.5771699 0.62678301 0.161268
1.0968699 -0.181531 12.2921
-2.6747999 -0.29062599 9.1353903
1.30132 1.04628 11.135
1.09521 -0.23646601 12.2974
2.6665599 0.49656099 0.26125699
-2.69785 -0.23037501 9.1455202
1.13059 -0.328614 12.2497
1.16459 1.09813 11.1538
-2.54581 -0.930318 9.1244802
2.7342999 0.249135 0.37404099
1.12591 -0.35006499 12.2561
1.35653 1.08094 11.1175
1.09059 -0.278404 12.3122
2.5973101 0.80059201 0.24872001
-2.6005599 -0.86205798 9.1452904
1.3789099 1.03706 11.12
1.09105 -0.292294 12.3129
2.6529801 0.59906101 0.269214
2.3153601 1.22981 0.106759
1.15 -0.60722297 12.3915
2.3706601 1.2253799 0.16941001
1.14275 -0.585944 12.3596
-2.6916699 -0.45752901 9.1550903
2.37519 1.27714 0.219284
1.20575 -0.66979998 12.3731
1.18339 -0.64927799 12.372
1.15883 -0.61072302 12.3489
1.14393 -0.57868701 12.3306
1.1829 -0.643116 12.3476
1.1722 -0.62942898 12.3342
1.33832 -0.668239 12.3454
1.31621 -0.67623198 12.3386
1.33492 -0.66100699 12.3247
1.3127199 -0.66174901 12.3038
1.24606 -0.69099301 12.3676
1.24911 -0.689619 12.3587
1.26648 -0.68110102 12.3174
1.23004 -0.67777199 12.333
1.28587 -0.59551299 12.236
1.30402 -0.62153798 12.2568
1.26526 -0.597372 12.235
1.25301 -0.64307702 12.2636
1.2842 -0.66145301 12.2853
1.31951 -0.628429 12.2683
1.2277499 -0.641415 12.2672
1.26592 -0.65127802 12.2705
1.14659 -0.54015499 12.276
1.17345 -0.591883 12.2736
1.15652 -0.56765097 12.2802
1.15169 -0.58491802 12.3131
1.1883399 -0.58797002 12.2585
1.2209001 -0.630862 12.2622
1.1847399 -0.61125702 12.2776
1.21683 -0.649342 12.2879
1.3789001 -0.62312001 12.3555
1.3741699 -0.623671 12.346
1.43153 -0.526124 12.3598
1.40495 -0.58303899 12.35
1.38574 -0.59682697 12.3291
1.35878 -0.62493098 12.3145
1.4269201 -0.503636 12.3251
1.40011 -0.54471803 12.3
1.4947799 -0.25012699 12.3546
1.49106 -0.29355699 12.3541
1.48751 -0.194769 12.3222
1.47587 -0.25932699 12.3064
1.46829 -0.39702699 12.3495
1.46197 -0.42127499 12.3472
1.46749 -0.32088301 12.3031
1.43889 -0.42794701 12.2917
1.42899 -0.29517299 12.2408
1.4272701 -0.169295 12.2328
1.40719 -0.41280401 12.2434
1.43758 -0.306151 12.2483
1.45775 -0.29464301 12.2761
1.4672101 -0.26637 12.2869
1.4285901 -0.35819501 12.2515
1.45362 -0.31320399 12.2741
1.33336 -0.563021 12.2393
1.33971 -0.58029002 12.2514
1.34249 -0.61566901 12.2784
1.35651 -0.60644698 12.2871
1.36643 -0.49144599 12.2343
1.38001 -0.48079601 12.2409
1.39805 -0.49851099 12.2663
1.4106801 -0.48194101 12.2751
1.498 -0.067667 12.3582
1.49991 -0.130596 12.3491
1.48634 0.045868199 12.3631
1.4642 0.096996501 12.3344
1.4912699 -0.128949 12.3255
1.467 -0.0089323297 12.2894
1.45298 0.127463 12.3231
1.44407 0.120983 12.2972
1.35447 0.355075 12.3409
1.39035 0.30752 12.3461
1.3435301 0.35468 12.3171
1.37357 0.29666001 12.2957
1.4083 0.279612 12.349
1.45258 0.17251 12.3523
1.39285 0.26646101 12.2974
1.42529 0.179665 12.2932
1.34316 0.248083 12.2353
1.3310699 0.292375 12.2497
1.36931 0.16801099 12.2273
1.36044 0.235586 12.2417
1.36455 0.265634 12.2576
1.34 0.34043899 12.2913
1.41222 0.16393501 12.2634
1.3911099 0.22385 12.2672
1.40938 -0.071175002 12.2225
1.4047 -0.0089726299 12.2222
1.44407 -0.031369999 12.2518
1.4684401 -0.101576 12.2799
1.41172 0.056665201 12.2362
1.42852 0.055567101 12.2487
1.44267 0.0132137 12.2559
1.4615 0.0222922 12.2867
1.31874 0.39014101 12.3623
1.33688 0.37988901 12.3576
1.22856 0.38955399 12.3537
1.2761101 0.40116301 12.3544
1.29864 0.384662 12.3249
1.33398 0.36133 12.312
1.22519 0.384664 12.3393
1.22602 0.374376 12.3069
1.12839 0.27047801 12.372
1.16435 0.333868 12.3779
1.14161 0.280303 12.3308
1.16245 0.32131401 12.3443
1.20035 0.370096 12.3705
1.1878999 0.357218 12.3631
1.17677 0.336463 12.3234
1.21798 0.37070301 12.3111
1.16947 0.25782299 12.2556
1.15136 0.258818 12.2777
1.21727 0.331956 12.2615
1.20104 0.311472 12.2601
1.15529 0.27142701 12.2805
1.17041 0.32456499 12.3121
1.22079 0.353084 12.2793
1.17608 0.32555899 12.3022
1.31549 0.31784999 12.2541
1.27732 0.34524 12.2593
1.30855 0.346697 12.2748
1.3058 0.367459 12.2963
1.24553 0.318865 12.2456
1.25538 0.34226 12.2589
1.24999 0.35840601 12.2753
1.22681 0.352763 12.2748
1.11633 0.239059 12.3883
1.12833 0.26795501 12.3654
1.0882699 0.111567 12.3821
1.09224 0.121524 12.3656
1.10742 0.187438 12.3419
1.1267101 0.25180599 12.3429
1.0879101 0.082995802 12.3553
1.10263 0.14719801 12.323
1.07332 -0.089897498 12.3943
1.07591 -0.109978 12.3747
1.08006 -0.104983 12.3499
1.0829999 -0.036962699 12.3376
1.07386 -0.0307166 12.396
1.0818 0.0384169 12.3727
1.08135 0.0038738099 12.3612
1.08745 0.0107152 12.3275
1.12657 -0.068829402 12.2525
1.10903 -0.142042 12.2717
1.13552 -0.023425501 12.2423
1.10436 0.0063803201 12.2796
1.09918 -0.092874996 12.2869
1.09126 -0.131808 12.3061
1.10133 0.066723697 12.2957
1.08723 -0.021042099 12.3207
1.1446 0.233678 12.2731
1.1396199 0.176174 12.257
1.13 0.226795 12.2992
1.11887 0.211063 12.3179
1.12997 0.12672 12.2611
1.1098599 0.079060704 12.2775
1.10753 0.13879301 12.3053
1.09907 0.091527402 12.3096
1.0155801 -0.58955801 11.9958
0.97760999 -0.500449 12.0325
1.01933 -0.59530199 12.1307
0.977929 -0.499924 12.0716
0.97177702 -0.48291701 12.0061
0.95900202 -0.42498299 11.9616
0.96688402 -0.44652399 12.1321
0.96983403 -0.46879801 12.0545
1.02185 -0.59056997 12.3067
0.99424797 -0.53092599 12.2562
0.981062 -0.47468999 12.3151
0.97040302 -0.43171901 12.2871
1.02019 -0.59482902 12.214
0.98882997 -0.52251899 12.1676
0.97345197 -0.46106899 12.2432
0.974581 -0.48048899 12.1639
0.95202398 -0.181217 12.273
0.95573097 -0.247391 12.3134
0.94867498 -0.16181099 12.2099
0.95023799 -0.26289999 12.2379
0.95727098 -0.27392301 12.3271
0.959894 -0.298895 12.3378
0.94813102 -0.28571799 12.1624
0.95250899 -0.29542699 12.2471
0.94225198 -0.15065201 11.969
0.94350398 -0.197786 12.0369
0.94497901 -0.29821301 11.99
0.94603097 -0.29998001 12.0407
0.94607401 -0.15089899 12.1448
0.94523299 -0.237744 12.1051
0.94521898 -0.26892701 12.0948
0.952613 -0.367899 12.1188
1.32322 -0.77992302 11.9865
1.30427 -0.78464699 11.943
1.38381 -0.765351 11.9926
1.34958 -0.77366197 11.9932
1.27143 -0.78375202 11.946
1.19519 -0.761958 11.9093
1.23586 -0.77808303 12.0872
1.21613 -0.770639 12.0593
1.35699 -0.78850502 12.2461
1.30001 -0.804591 12.2645
1.27968 -0.802558 12.2353
1.23575 -0.78813303 12.2221
1.3546 -0.78153801 12.1388
1.32814 -0.78544199 12.1085
1.27704 -0.79485399 12.1474
1.28003 -0.79297799 12.1134
1.03982 -0.624439 12.2945
1.0563 -0.64586401 12.3205
1.02942 -0.61206698 12.2345
1.09673 -0.70002699 12.2051
1.10894 -0.71336001 12.2997
1.16807 -0.75861901 12.2627
1.11736 -0.71329099 12.148
1.13664 -0.730681 12.1967
1.02355 -0.60260099 12.0049
1.06947 -0.66046298 11.9989
1.14209 -0.72704202 11.9189
1.1436599 -0.72749197 12.0104
1.04672 -0.63209999 12.0986
1.07485 -0.66797698 12.0873
1.1217099 -0.71370602 12.0862
1.13085 -0.721322 12.1029
1.60322 -0.232344 11.9622
1.5964 -0.33403301 11.8599
1.6025701 -0.20942 12.0689
1.6076699 -0.17739201 11.9794
1.57831 -0.40681899 11.9061
1.56525 -0.45746601 11.8976
1.59192 -0.347693 11.9881
1.56328 -0.457221 12.0145
1.59548 -0.188235 12.2673
1.5934 -0.244196 12.2248
